ncols 180
nrows 31
xllcorner 4082136
yllcorner 3544618
cellsize 400
NODATA_value -9999
45.2738903591625 45.2730074074066 45.2702401235344 45.2703003997372 45.2516455676963 45.3528058776716 45.4802366977989 45.5103892611765 45.5014165912171 45.5033957812418 45.5481084263427 45.5763159389161 45.5640680463518 45.580362745999 45.5923785994939 45.6293846184257 45.680355621552 45.7356983301402 45.7643490459941 45.8175489031911 45.8218525487904 45.9139491332733 46.0241131715123 46.1600698165491 46.2423253635588 46.3788383616936 46.5504971619053 46.6793219620888 46.7461365740632 46.8491691962654 46.9166985575565 46.9800526596067 47.0452339369015 47.0223162558485 46.9631365200377 46.6842740091919 46.4584335105613 45.985022120343 45.8280088243218 45.6712835611222 45.2908966309601 44.4992905879957 42.6167155635802 41.3105240530966 40.6205419251694 39.8752363706263 38.7903211392384 38.9096876448918 39.469520911702 40.4736692186319 40.9949680590853 41.3546470717009 41.2810808743672 40.8355045015913 40.3196528779529 39.5446681357856 38.8132355737923 38.9064033080041 38.9401976105077 39.3209872111607 39.7366974012456 39.8821497561817 40.0812954028422 39.4589713862023 38.4456377001837 37.9226776226688 37.9069998831268 37.6643658821617 37.7583132598948 37.5349537745999 36.8800424250324 36.2870493296296 36.1964025048426 36.031713011206 35.9171257127177 35.9067170063761 35.9507222819433 35.9549606398206 36.2462356455895 36.5630784538526 37.0727284392588 37.3786908197116 38.1695945940505 38.1664469008391 38.2506832002154 38.1565659206629 38.0175259741254 38.1841024582939 38.1836924046685 38.2198413817593 38.2255913500935 38.2727561137299 38.3060821560935 38.2529607077393 38.2976964478506 37.8439805616257 36.8333986146533 36.2186258243435 34.9305321376105 32.6891628071468 30.7971443212547 30.3317199257346 29.3821776739436 28.9769775921725 28.6356337600836 28.6116438277522 28.521410643626 28.4691464644555 28.5318552495649 28.617896666638 29.7315272552497 30.4067140591763 31.5313195093245 32.1912987082564 33.7165053815586 34.7343570350662 35.5706210552439 35.4716329607047 35.3735601733132 34.5631686889557 34.4338159120909 35.1307673023741 35.4907976575951 35.4539907738101 35.4350141783691 35.3172148548511 35.162771492183 35.0323778475664 34.8639003076187 34.7189503571379 34.6068006865866 34.4812375461263 34.4682727352128 34.3452217379348 34.3041508882291 34.120743133353 34.0835116011458 33.7894031688459 34.0939532904268 33.6218203461997 33.2010852500379 33.1434487641662 32.4053620343293 31.5383582109013 30.6500307604127 30.7289439997938 30.640466187414 30.2684236150444 30.0307832797593 29.973307327272 29.4515971792015 28.8466509129182 29.1574475076923 28.9578390787426 28.7013391518995 28.3551312956546 27.9634540907581 27.6743124894222 27.7190540856325 26.9522392044981 26.6443740265448 26.722884295312 26.4950087290345 26.0161170641188 25.6848464715466 25.6445316186826 25.5823558665055 25.6167689558128 25.6586792489333 25.7130959197142 25.6344033857149 25.4853942930568 25.4272718313313 25.0852267619614 24.6900157685269 24.1281483987945 23.6569473658861 23.0560490964188 22.3546453750346 22.0394159821715
45.2083978828732 45.2122756065662 45.2191702488855 45.2093868656101 45.1700186246561 45.2215345131741 45.2697181045702 45.3646776859523 45.3848618393814 45.436447485638 45.4577927753806 45.4912760806857 45.5051968581365 45.5158369077975 45.5250616619702 45.5503119845008 45.5969749866057 45.6491779226156 45.694836451597 45.7380673025383 45.7838015365486 45.8608131961365 45.897791040564 46.0540302835688 46.1758676730054 46.2493258417838 46.4140826763677 46.5597343706477 46.6893741779081 46.7425900821639 46.8070558173867 46.8789646729103 46.9359433978143 46.9240447794815 46.8692498637915 46.7592434330357 46.4813023616982 46.0982642597101 45.7481317726829 45.6363594096773 45.3719776427538 44.7076838820828 42.8990057792542 41.7600788401319 40.8747831466382 39.9836977760705 39.2725945983446 38.9376697045199 39.4926137774922 40.3225757723398 41.6000407524593 42.3370037746853 41.6529429602449 40.9678534302885 40.7096521272684 40.008860547547 39.2832372489787 38.8685050667189 39.1130319681578 39.5346380740148 40.9224352405055 40.5251250119847 39.9215967174638 38.7033053388199 38.7165271298946 38.1580448332839 37.7799446727751 37.6686451938213 37.6986141799577 37.4685968492893 36.9319845576854 36.3595892652143 36.0795900049893 35.8835811731203 35.7382789583214 35.6704733896062 35.6682065032559 35.7144810636969 35.9730864102932 36.2047850318805 36.7005422678929 36.8976227030375 37.4942854563263 37.7290368143981 38.0873585312225 38.0250884121097 37.9334222031803 37.9854899180906 37.9438180838837 38.1357082294082 38.1223242691738 38.1758039797162 38.237980525302 38.1763810163117 38.110421971705 38.2657877090194 37.4212883278312 36.1537428033259 34.3590335488021 32.9242129536044 31.3131253013944 30.5463182761377 30.0751453269166 29.5103695604053 28.9570032756874 28.8101783279044 28.78097360132 28.8242476776734 28.8228578005581 28.7862896105591 29.3028446761701 30.436929641797 31.2701840935887 32.2732494107738 33.5180860694787 34.5318155612581 35.1806702848206 35.2625895998141 35.3280977989693 34.932282899265 34.5913285083231 35.0037405201225 35.3855224106367 35.4088452442214 35.4031240200153 35.2710441234298 35.0571226531759 34.9124824125481 34.8082743849681 34.7087688184686 34.5735422237547 34.4790613570367 34.371679355626 34.3410883596732 34.2821033557525 34.165166621956 34.1390507013967 33.8995589656155 33.9386958432712 33.8234377565885 33.4659748081081 33.2188550150871 32.730758323397 31.8326536296872 30.491959972524 30.4472268786097 30.5228221116372 30.3651564037356 30.1159753974531 30.1190686267987 30.0451438222045 29.4802629297763 29.5173668040947 29.3294399195071 29.005349551554 28.6112388704061 28.1698701117111 27.8173105203696 27.84287332921 27.115208730704 26.8594215756683 26.9688064038443 26.6072839310237 26.2020002177775 25.8410941112094 25.5984385354006 25.6482006317185 25.779051199877 25.803821659462 25.8351295341578 25.863823435961 25.7470307158236 25.5994691558711 25.2941492099508 24.9891026288046 24.4943346759578 23.988633266653 23.2830241038692 22.775667050342 22.4449148167077
45.1640345591677 45.1585276917605 45.1319189549818 45.1206170455044 45.0693614573118 45.1146301156534 45.0969006794805 45.1795532378472 45.2415874604893 45.3258862252724 45.3629372987867 45.3987989586623 45.4232513403754 45.4413074682087 45.4593931421536 45.4798890245668 45.5163882642607 45.5669611515871 45.6205478974571 45.6741890353546 45.7360774177206 45.8049670221014 45.8323430723728 45.9575539848362 46.0929273848289 46.1766640453317 46.3228579893687 46.4381871485215 46.5646890357009 46.6303515110096 46.6945917245132 46.7830572970418 46.8592838729264 46.8500401722565 46.7657840080194 46.7363701291671 46.5492119794733 46.3090361340415 45.8689460604673 45.7041303062051 45.3886222483657 44.677899143578 43.1586719059723 42.1148785756572 41.1595428189718 40.198200274438 39.8560065848017 39.4501109024637 39.5781090481046 40.3090422838066 41.1868927389261 42.6329743151863 42.1355091883613 41.3501867846554 41.1308768908769 40.4806008097677 39.5607274459189 39.1529560144495 38.9937269041361 39.2223342253238 40.4973257683903 40.8921671310255 40.1535775662569 38.9754610183027 38.6096379921118 37.7010575521903 37.9236674525099 37.7957371693665 37.4385994590353 37.4160433310376 36.992983128998 36.2154841113395 35.9869179114828 35.6747156876042 35.5760274867177 35.4609109839072 35.4436011034104 35.5017150970049 35.7849394154349 35.981491966056 36.4500179473036 36.7153052503825 37.0296488838614 37.3049685438743 37.7153951623767 37.8946592395027 37.8315990858032 37.8656907835152 37.8148795034329 37.944284789544 37.982280390553 38.0621407928919 38.0991616160945 38.2022825441871 38.0732169800197 38.0662661648225 37.7094395137008 36.9601190301395 34.7295679734577 32.814010234236 32.1342663624467 31.1143947308336 30.3979059997934 30.022849506039 29.5554670861629 29.0790996862625 29.1702809757095 29.0887033617883 28.9652100392725 29.1808869612826 29.4906972093646 30.1489641574325 31.2393661199313 32.1878717237624 33.3114671101589 34.2756938379501 34.9755907172163 35.1214913743418 35.1732187907 35.1727337333357 35.0161226206668 35.2313357545157 35.3994076014585 35.5187135515677 35.4319639463652 35.2371741319803 34.9839677952651 34.816806657815 34.6819466154247 34.6302217378924 34.5596822231251 34.4735991738142 34.3667560227225 34.3277493205045 34.259507616562 34.1952202826643 34.133353970335 33.9622084825123 33.9558828791145 33.8368909809454 33.5870353967987 33.5242778701405 32.899860200145 32.0208864519213 30.9486968337508 30.4124302736491 29.9281459290061 30.2374563459676 30.2216272340573 30.3492547950287 30.3583339661894 30.0714297278799 30.0307547803752 29.6235281472027 29.2165501987516 28.9139493666488 28.3730236670599 27.8158717898477 27.6737252474566 27.1450223512776 26.8256480256798 27.0021048876931 26.7747315027464 26.4942777908539 26.1527665865716 25.6104874193332 25.6924455352991 25.9364265326501 25.9975027821658 26.0368020426421 26.0565865647689 25.9686995268158 25.8661636906987 25.5810337177761 25.225076496572 24.8745288040007 24.292277467215 23.3103723348076 23.1721098517425 22.8492970184972
45.1402022475959 45.1144084841291 45.0708420643217 45.0383964778864 44.9714746274654 45.0148859914355 44.9974136265507 45.0275662561429 45.0815740843938 45.1581469998342 45.2448395824704 45.2914573164842 45.3270027783011 45.3456424165067 45.3833557186484 45.4028178626399 45.4385029412252 45.4949078656321 45.5425847403929 45.6105359551734 45.6844009762341 45.7490651325301 45.8026580230251 45.8870933607265 45.9939790271605 46.1073186462383 46.2355842322777 46.337498906835 46.4301806003738 46.5199428429991 46.5913526311624 46.7020481413532 46.7683330788066 46.7734819036702 46.7033490127634 46.6785743689022 46.5884617954017 46.4676786754555 46.1062305743008 45.8455753053719 45.4795555803642 44.7333929188039 43.6039574987722 42.4548152810433 41.4498095936621 40.6237510055214 40.3110385256095 39.9529636339967 39.8749998792067 40.5072343006168 40.6331099884756 42.2834969484252 42.3983981209684 41.6837885701354 41.3003190784252 40.5495026529031 39.4681582699965 39.3999072333681 39.0291557964235 39.0456602905999 39.4693483317364 40.5805258141414 40.3320759398214 39.912787391553 38.8402843193956 37.8811270136822 38.130587701527 37.9934475464136 37.3949513955129 37.4929854169828 37.5159705245364 36.2089865135517 35.8338742829781 35.5317063119734 35.3776576947802 35.2692163589325 35.2920673953175 35.3390698464062 35.5889586083214 35.8371436631104 36.2543750322884 36.5870355032604 36.8183637717361 37.0211177520721 37.3422421412919 37.6290091641571 37.6956157680283 37.7753656669903 37.7164003399293 37.7156785733345 37.7380496850521 37.9605738816206 37.9201525184422 38.0637236521673 37.9847968828696 37.926907579382 37.582725451537 37.1476161775095 35.6515803698165 33.5799225977858 32.9333251468728 31.8118600200334 30.9749987361792 30.5785469197448 30.1203484896076 29.6586415229909 29.5362408875094 29.4320658406442 29.3862227301762 29.6926925914132 30.0338194368759 30.2787225144808 31.3912363975034 32.1010861161516 33.2656037027037 34.2619426472926 34.8420428216901 35.0575832865387 35.0752606298031 35.2784789825904 35.3047386983426 35.4519037403828 35.4646747681843 35.6879169942282 35.3996941162565 35.141767085583 34.8856012644531 34.7258048329375 34.5723777185938 34.5263417210628 34.5395757574007 34.5017709381421 34.3787134877327 34.314287610723 34.2546317403513 34.1928539748931 34.1560762404813 34.0266648357047 34.037542503503 33.7272192935432 33.7265283101636 34.0760775774309 33.2708225853158 32.1909307487061 31.2648151220764 30.6450227585271 29.9050815748422 30.1046074107773 30.3475112714739 30.6570032213655 30.7171738826141 30.4414545883392 30.4798970264147 29.965848675649 29.497810260164 29.2071552731613 28.6107590137383 27.8393940980096 27.4347098554361 27.2146244318489 26.8370695497677 27.1212249938322 26.9454803678026 26.8123461394274 26.5858193463586 26.0225813737884 25.9426864984685 26.1303468959102 26.2202322503535 26.2905843776798 26.3019976906047 26.2189094718935 26.1546017410115 25.9464762724765 25.5853817794244 25.3845465431387 24.742185093114 23.7081373932518 23.379103977715 23.2422023501932
45.1110207872885 45.0733138453961 45.043068786159 44.9828371319503 44.9137721979749 44.9151085382566 44.9227450738047 44.9340538213843 44.9447751858601 44.9849208553672 45.0882356926556 45.153864219676 45.2193825882561 45.2410798343825 45.2858920238954 45.3149767368196 45.3569963515602 45.4207022574075 45.4637182605988 45.5369901056704 45.6242305930799 45.6901897781581 45.7692787572956 45.819817180929 45.9026036717105 45.999960884006 46.124046126195 46.2416295138579 46.329218597576 46.4307417299409 46.4982333846676 46.6126643669948 46.6697990238452 46.7056525669427 46.6657282050678 46.6501606120857 46.5888924801837 46.4936686782739 46.2527567284538 46.0021478120226 45.6709800969168 44.8630537529655 44.1455752620096 42.8736885756548 41.7535081597947 41.0967379315421 40.6747337832078 40.2904932703866 40.1671500007243 40.7177552958988 40.7081310862509 42.1087401627177 42.7640987115351 41.8907489307243 41.2286800324599 40.4551039521909 39.495976392909 39.3483606058627 39.0211840403272 39.2222929574819 39.090040579073 40.1297646607245 40.6110417223739 40.4264463388111 39.407875662318 38.8315217992284 38.4118979675894 38.2698742651801 37.854312604151 37.7037851994902 38.0509869084723 36.4820585093483 35.7391869083538 35.3831821229101 35.1811055525861 35.1001855370218 35.1585188649853 35.222028920345 35.3740056824415 35.6779408176293 36.0510200066737 36.3867834042225 36.6710342184457 36.8508918598931 37.0907240873894 37.2848700361957 37.4993552341919 37.6601312958128 37.5649095850682 37.5267530271446 37.5086130232231 37.7870850389836 37.7248358489241 37.7965945050615 37.7813634448704 37.9359300341283 37.4060996435173 36.8583959740282 36.1452818205176 34.8679696393423 33.6295160098593 32.518734691557 31.8748142659441 31.2681855754452 30.6598438008277 30.3394120227639 29.966693697033 29.872040428892 30.0991995165957 30.3430045551364 30.6096569237722 31.0341287326757 31.6969817170284 32.2890715768187 33.4387312327009 34.4353378802611 34.7317110392827 35.005760634181 35.0880606692707 35.4500653171943 35.4463769840758 35.5442328899972 35.4947597792756 35.6595321183542 35.2808764442887 35.0163023107153 34.7608353605145 34.6003444015478 34.4968999026118 34.4310791313166 34.4517291142415 34.4778759948596 34.3602555312313 34.2816718881176 34.2357077093897 34.1760460621477 34.1747995941415 34.1144727561707 34.0354510629591 33.7524878424016 33.9442981392376 34.3263914578904 33.726066119195 32.490540106941 31.406152309522 30.8389460732782 30.5318100701477 30.1981321429372 30.4310331051054 30.861577161389 31.1607847198192 30.7364287037907 30.7319342551104 30.4328098938668 29.9716296218114 29.4782896546186 28.9094556284049 28.0619443292015 27.3943908236812 27.3946432291277 27.1206998069772 27.3707990493143 27.1172636497683 27.0599178769983 27.0018493386893 26.6085729403233 26.4329345651024 26.367100491863 26.395628007537 26.5350100307146 26.6259854636148 26.5037177733527 26.4282696769682 26.3721839764636 26.1012663533725 25.8791110431663 25.2879910847364 24.5169141533286 23.7580482984123 23.6304962540435
45.0417882740827 45.0200073154542 44.9962660686634 44.9537347031971 44.8963322947785 44.8372605604591 44.8260036559279 44.86318236216 44.8645194910405 44.8703760104709 44.9166007982559 44.9818799551627 45.0860375947484 45.1468217120736 45.1726171837324 45.2259177960806 45.266964884409 45.3338379345313 45.3874636214928 45.4622119271655 45.5362001620935 45.6087212548599 45.714364653654 45.7341644215325 45.8295362126187 45.8882255338722 46.0095937133162 46.1255103351666 46.2150991184382 46.3530168499735 46.4063348702762 46.4871454639637 46.5968070591534 46.6675418543935 46.6266344368462 46.6102977057501 46.5864240334008 46.4324454445236 46.2413706789557 46.0959082693374 45.9057164827502 44.9042823661328 44.4686306228543 43.2901934419162 42.0943109407313 41.4009193662785 41.0625663957243 40.8171838482475 40.2640586667642 40.83414141433 41.1571495435646 42.5352516990432 43.5999068058509 42.2583351118385 41.2977824501507 40.7776071094138 40.0556948623902 39.2574602363392 38.6706897741821 39.2884491106841 39.3335674771642 40.3309192090965 41.645717426202 40.217776021615 39.7134035414656 39.2581203617915 38.965382931394 38.6525391026425 38.6913762386839 38.0317087204261 37.7910386348907 36.7318519505832 35.8496566390085 35.1180836229781 35.0367772543459 34.9651895658309 34.9859707785793 35.1027828882831 35.2219449828292 35.4784747910782 35.8203469563632 36.1805818943888 36.4566178728962 36.6830683752541 36.874847938572 37.0416320195062 37.21120984237 37.4629405055262 37.395113945046 37.3749069325065 37.4225759702911 37.466129675726 37.5152119669249 37.6052415770511 37.621507843847 37.5765313503772 37.4869569636423 37.5430534790216 36.1410691441263 35.2058915773796 34.2801542559344 33.4525456686589 32.6272019693704 32.0001460850745 31.4135821466888 30.7732493480796 30.6319775439064 30.4161264867379 30.7324128473101 31.0785009932614 31.2769737302257 31.8184915588992 32.2541091101248 32.8501977729174 33.7122490531664 34.4101557635501 34.7533361971289 34.9312254914108 35.1492082612198 35.7396419515031 35.6584933299283 35.6035307793696 35.4630364953345 35.3205231523264 35.1423790243658 34.9412587828509 34.6679379120972 34.457992082384 34.3766771267543 34.320681931566 34.2746293965905 34.3088430937313 34.3240821363717 34.2453372181226 34.1776708171783 34.1465047011252 34.1399633048659 34.1621445892028 34.0758907133738 34.0744870754365 34.1275748153587 33.9584156058252 33.7776633523732 32.8690879677098 31.9807562945694 30.867413911529 30.8178401561746 30.5545719771276 30.4828045077351 30.849949581202 31.306805924684 31.0556834456522 30.8409706339745 30.8943332317788 30.5517613411189 29.7741966464263 29.2190496661132 28.4296205407205 27.6988206978614 27.6615069189273 27.609032301329 27.521305555508 27.3542581965992 27.1806746456167 27.259662997486 26.8867035902147 26.9302971204038 26.6074669545351 26.471507518715 26.7412668553159 26.9108368485849 26.7672446886155 26.7541035327105 26.7902488553918 26.608696418817 26.1561112542254 25.7118677207864 25.1924671959114 24.6128962475636 24.0444384666997
44.9515549018032 44.968731996217 44.9452582598291 44.980081068949 44.8896022579564 44.8215122541864 44.7901248596126 44.7649453090872 44.7854714193994 44.8011032810319 44.8124207376938 44.7989726159162 44.9265957995136 45.0417995059595 45.08387779256 45.1470344043241 45.1785917890875 45.2496904470104 45.3212692439266 45.395142552243 45.4723894023704 45.5111607328351 45.594496597601 45.6788980894109 45.7454267532092 45.8505400855205 45.9082439937316 46.0090167337003 46.0337607710036 46.2137788503377 46.3148028326516 46.3954649705412 46.4592251817368 46.5563090413123 46.6002926375215 46.538645201906 46.5120786020281 46.4048787915952 46.2606754386835 46.0515601091508 45.8279919497078 44.9740039571797 44.4680279232566 43.4445566199755 42.3732209207108 41.677824528951 41.3514065150453 41.6168923031243 40.7271661617638 40.988449883986 40.7788232788168 41.7135860465308 43.3125022894587 42.8385384675305 41.8673675653505 41.1026640752989 40.1206560851691 39.4324809287879 39.2387647341249 39.3006392135198 39.530655852689 40.7260457908994 42.1424194813953 40.4626789046939 40.0220849233122 39.3116505715107 39.3903099003836 38.9568199376478 39.1619430732535 38.3152341350655 37.6169118813513 36.7848512678254 35.7847242459948 35.1763002478693 34.8208974592541 34.8095377393794 34.8239208994006 34.9859918058226 35.1026542509034 35.3263011336414 35.6118955019294 35.9483896004616 36.2125538035924 36.4724974651915 36.678184859857 36.8358824627261 36.977266181709 37.1132476678101 37.2463814093204 37.1416857560343 37.2030142095048 37.2204462325143 37.2234798861563 37.3096016222385 37.4206869884878 37.3981089398606 37.1451925575329 37.0389676632608 36.7871471786531 35.5723248299372 34.8007244546014 34.5384390254626 33.4666858658697 32.4007719874972 32.1492944389508 31.5718165469961 31.1045830756872 31.4009403663073 31.4111820294047 31.8157226368369 32.1021786381819 32.397037135702 32.9323584100683 33.439151184148 33.9364049371278 34.3233296957652 34.8281346255625 34.9293502272738 35.2772592510845 35.8501408789561 35.8090595239556 35.4991415326857 35.3579396970465 35.1456608728538 34.9600690169689 34.8417094474722 34.5783563159979 34.4119202091508 34.1947929981511 34.1777159169203 34.1875693477092 34.1868562370133 34.1546100136179 34.2485431630196 34.0911349771629 34.0941299243132 34.1765676616722 34.0675944926569 34.0810070182033 34.1044494390665 34.1188774888205 34.1930689902852 33.8739539098782 33.0372529087859 32.4030286512282 31.5702768407049 30.5577976874428 30.8286015803577 30.8643461576503 30.9318361787261 31.1977275920515 31.0653021652059 30.8896697265927 30.9724455799773 30.9754929145511 30.2068141290117 29.4602363130701 28.5565561457041 28.0248006564733 27.9757162559747 28.1371008242466 27.5994273467981 27.5600795313769 27.1408649545787 27.2588967795371 27.122405762049 27.1701378413709 26.8524618834684 26.601151017413 26.9409849585875 26.9952083654016 26.9411285219879 27.1254879552406 26.955165762097 27.0685511675551 26.7101706729863 26.1554535549238 25.6895403840386 25.1615748467257 24.7740304216386
44.9815393117288 44.8519395424476 44.8653664933947 44.8925064183874 44.8391994789647 44.8064941934819 44.7664653148842 44.7237881486026 44.7259598728854 44.719280071535 44.7049225676878 44.7079318723463 44.7786736461567 44.8735832368514 44.9617969337253 45.0413417123248 45.0794920921254 45.1491563683806 45.2339393342227 45.3192893311428 45.3777600645338 45.4199042141946 45.5061547724474 45.6013738357527 45.7212724970959 45.7948569426172 45.8974539037591 45.9641670159342 46.0044666708937 46.0491576707056 46.2019282828562 46.2928742412966 46.356166991404 46.4259447368895 46.4755804171657 46.5345241094115 46.4633267120127 46.3542268486933 46.2267497973539 46.0755368315002 45.6736259251824 45.0391798411538 44.2575096821534 43.4426277213477 42.5612439837912 41.8201301921589 41.3115517780465 42.0272982723815 41.059542642362 40.9407337464274 40.6006643149935 41.5064923199905 42.2392149335802 43.0427198590804 42.3002020429824 41.352693269738 40.4382357009032 39.106666874903 38.9485529537708 39.0190816985552 38.2072682185107 39.6063601752216 40.7442311030077 42.1809499686411 40.6125680578893 39.7487266796114 39.0697559461745 39.0382972343468 39.147199261245 39.1347049105325 37.5826263087868 36.7758270508818 35.7784525363656 34.8869538601433 34.7327813959903 34.6512025858198 34.5909783152434 34.8055044240719 34.9360420170015 35.2322882744233 35.4372804713697 35.7460320129268 36.0003087268238 36.2486484672919 36.4639410383456 36.6215925104151 36.7683832142624 36.8399788222457 36.866043249707 36.8939785224308 37.0300887379806 37.0397375272795 37.0311665258096 37.0212387397553 37.1066481674015 37.3566862249685 37.0778164436144 36.8704413883857 37.1290867779447 36.0381096727985 35.2926156191712 34.8253276218096 34.9708030576573 33.7104620646532 32.896482301423 32.53710650673 32.2568032677331 32.3632974681491 32.4012712023531 32.6238963329344 33.2357781961755 33.1072217823789 33.3749203228372 33.8026980503197 34.2437897201707 34.4213078248309 34.8215755466021 34.9552458715749 35.3117270250496 35.4107821394687 35.6893802768795 35.4986995681783 35.2074077223342 34.9555110548141 34.7932972018732 34.6319640054861 34.448499013128 34.3229894654104 34.1056969371433 34.0410553856566 34.0831686792425 34.1179220610496 34.0347466431037 34.0027397281777 33.9919419591086 33.9780821024131 34.0076829705682 34.0733063800212 34.0558080365136 34.1200301187009 34.1703893584937 34.1256798990107 34.5276382324857 33.383209576098 32.6853310674722 31.7877209151238 31.3165606624883 31.0360875383018 31.0321259685013 31.2064622206577 31.5801336659402 31.2315892108388 31.0002538477478 30.9837338800027 31.0055161916586 31.1148637360586 29.9885541905991 28.5328971572805 27.8964478984483 28.2224409099886 28.3372680607617 27.8702315539213 27.7036781820354 27.2890248516447 27.495951202801 27.3779437032184 27.4950864094225 27.1784912969535 27.1106840754536 27.226087787695 27.2451685572455 27.1348824396621 27.5887824911526 27.4173232073668 27.3190701785875 27.2135402164413 26.7330661433881 26.1247034536771 25.4967730164188 25.3112066980631
45.0164816486437 44.8862597591524 44.8548154627085 44.7742366989289 44.7955137590427 44.7727137350616 44.7635863299164 44.7058739197548 44.6886817967249 44.6494627930263 44.6054008225791 44.6542042050982 44.6638627965007 44.705025120647 44.7436857069376 44.8507998687005 44.972234919519 45.0518569308269 45.1396635921722 45.2399215341845 45.2882957648409 45.3639417014231 45.4443076550543 45.5250683684595 45.6352936743563 45.7194236053686 45.8465088136141 45.8943344930284 45.9622450335867 46.0293583055795 46.0332293293974 46.1795588645668 46.2681482040775 46.2970818637144 46.3704381929135 46.4266981748801 46.3866681894765 46.3100106325367 46.1939072172812 46.1112289502411 45.7675056243853 45.3571222408469 44.3365153673362 43.4971272532598 42.6905086530029 41.9674754336482 41.2695578713174 41.7032145469269 41.1879234534006 40.8409740911131 40.8811610323715 41.4432645821512 42.0845959862899 42.5271880764437 42.2189796677558 41.473896864954 40.6612314841893 39.7128355160515 39.7887897332095 39.0739017826139 38.8876265749514 39.5976083631025 40.2216073627395 41.0113810396977 40.289282989941 39.7756590204872 39.4492520415173 39.3421169855673 39.4556553691972 38.9740582628314 37.6474478835294 36.1305155264498 35.8002184633789 34.884991878286 34.6018348592963 34.496926360337 34.4441433610673 34.647217182445 34.7692135891818 35.0685600554993 35.2551816971339 35.4991863526559 35.7932174575878 36.045512614186 36.2075127877817 36.4026566727507 36.5495632236833 36.6231047508179 36.585808374798 36.6137796748411 36.7296885247075 36.8714876861629 36.761725479696 36.789383366746 36.7335393658312 36.9083946560171 36.8248856775351 36.8454313776434 36.7083940088491 36.6579766645529 36.1913670069383 35.3211864468947 34.9839200751152 34.8409316165876 33.6574890417567 33.4245115907668 33.8618435995731 33.2925746168944 33.4222076872266 33.3248421530264 33.6606487284977 33.7514565486097 33.6635310287772 33.9585721854924 34.3528910940221 34.3870325841217 34.6902104798362 34.88447650829 35.1157831191905 35.2246034427749 35.4500478805027 35.3394279929677 35.0442846761286 34.762653578707 34.5946358315984 34.4036119732322 34.2737446574607 34.2640525907724 34.0710988701759 33.9631452120147 33.9297578872813 33.9147364699176 33.8539269525578 33.838604118196 33.8361845576328 33.8861939985902 33.8923786950578 33.9796922683991 34.0849439815596 34.0911906573683 34.1808185456906 34.2725933444186 34.2098469251669 33.791950213966 33.1176488297781 32.2741074809908 31.8889573167406 31.4818891725034 30.920034506376 31.3074759009953 31.5384698111497 31.3932661784124 31.2109491905317 30.9741904019412 30.8827229962105 31.0557085849582 30.3171181256306 28.9655360079288 27.8467390490812 27.9823738186426 28.2984347683218 28.0751342210804 27.9041232447002 27.7585497149409 27.7274195079016 27.4978344191342 27.6454543537894 27.4610078111307 27.3499388113393 27.4742398319566 27.547347180806 27.5842557531679 27.7681554020865 27.7070889239952 27.7495445959307 27.4678989601404 27.1817197859083 26.6325684579392 26.1473148573665 25.8058977878372
44.9825749614224 44.9374624098903 44.8518083075062 44.7540364601033 44.7482417634876 44.6925992386964 44.7227328417025 44.6719853500226 44.6460824009017 44.6031913207619 44.5524941399361 44.589597838017 44.5914998108987 44.5882151143988 44.5755869984695 44.6708796348722 44.8204957549384 44.9365918419549 45.0429848811836 45.1452996281897 45.2057782458933 45.2969784463909 45.3796017346157 45.4729902961954 45.58116225667 45.639636521974 45.7498803303987 45.8430533916019 45.9398149425102 45.9812715457254 45.9964719886806 46.0787246655465 46.1832750620579 46.2232881361755 46.3369566852136 46.3694847027985 46.304313277337 46.258909722051 46.1861474295185 46.0798601245012 45.7974702274362 45.4937529735342 44.8434386021696 43.7316505752541 42.81464450448 42.0589115355892 41.4606506775869 41.7072837757696 41.7177471717333 41.4445951125013 40.7528449521123 41.1237320045736 41.9332753983889 42.4450235167109 42.777928927946 41.8053243641383 40.8997670966893 39.7447720323432 39.663992220481 38.950723128657 38.8794945202764 39.4847811572937 40.1418026711662 40.9896196327324 40.2387544975994 39.9325722022683 39.7019260498768 39.5573448288572 39.3786309345998 39.0277816805314 38.249720471418 36.1954495581249 35.6017319917172 35.0022254917125 34.4939616900222 34.2896672654456 34.3366389271505 34.4879578573443 34.6026059791759 34.8096973384775 35.0431207679669 35.2529752824686 35.5254227500399 35.8086287875502 35.9730681233773 36.1852397644247 36.3410556822246 36.3869414520954 36.3723398261042 36.363465759828 36.4113151001828 36.4932857792044 36.5379581650101 36.4953751912757 36.4885124071903 36.5205050370617 36.5115747732779 36.6679835253167 36.5263784697088 36.6161059590164 36.1609560268311 35.7274292009714 35.0935739058755 35.0217696252138 34.5331241160136 34.0746127373704 34.3006854388129 33.9462005054656 33.8390274199402 33.7208295470454 33.8356001748824 33.9515388614246 33.9331456869608 34.0735031399603 34.2382078369729 34.2424524432355 34.4405874526627 34.6781896592385 34.6994334718868 34.9464711090528 35.1434850378781 34.9059633740026 34.7914247721197 34.5354253145434 34.4041261526508 34.2015013239409 34.093750029652 34.1265184678589 33.9968749684946 33.8768236019015 33.7832097976951 33.7028899698005 33.657037572032 33.6931184788 33.6611417282063 33.7530072233154 33.8296713387319 33.8226338509689 33.958798066479 34.0813437624247 34.1080471379206 34.2923120168138 34.1731342782455 33.877268189042 33.3929963003641 33.1444227390096 32.3196757317644 31.4492717245301 31.2005872910293 31.389601878731 31.1861438649052 31.3156669500654 31.0494463788681 30.989211135481 30.8511918143634 30.9009370786332 30.3679490931802 29.529512381518 28.4350896314803 28.055044745154 28.3723659632218 28.3281529963055 28.1683262925246 28.1544248430925 28.0074562245504 27.6763685705829 28.0245137816317 27.7760495789317 27.5916025084512 27.6887557558715 27.8663285445637 27.9800293805549 28.0715033712485 27.9787113478159 28.0497836195277 27.8789463208 27.5712418441185 27.0827776410881 26.7455095559688 26.4306744076548
44.9232875532425 44.9243157790734 44.8461296704968 44.7737299472427 44.7195451552637 44.649447359428 44.663454362817 44.6285191409193 44.5979353310143 44.5628997923536 44.5215547518405 44.5252111658209 44.5357271598255 44.5149940798549 44.5098350780369 44.5442878763031 44.6619151532639 44.7750330649917 44.9125320673513 45.065118607409 45.1106448094253 45.2032192348803 45.314909936065 45.3980772187846 45.4994528629357 45.5606362454096 45.6479569322742 45.7614903174338 45.8695132325034 45.9636083013556 45.9730018890789 46.0191403790807 46.0891387054623 46.1346403578687 46.2604837079423 46.3022601625262 46.2375261391309 46.2019429162608 46.1605230021189 46.0378500355982 45.8205402624239 45.4780333741298 45.2152908963703 44.1154892324471 43.024353787875 42.0519653338136 41.4315622244113 41.7146754443466 42.3109515475133 42.1136223336059 40.915782085391 40.5250156054115 41.6635557221679 42.2774791663565 43.696521041457 42.4979449655806 41.0787567499087 39.7646825998101 39.326905011974 38.9692677788377 38.1962440940008 38.5656365401355 39.884377661991 41.2279049092483 41.1745486497638 40.1615301965747 39.8975996720883 40.0169216448396 39.2669474606232 39.0183092508275 38.4506762125701 36.6040706172468 35.5926902485461 34.8254305449019 34.3292148402285 34.1448768432748 34.2008208552382 34.3015849768251 34.4049645280233 34.5611954530722 34.7366369003696 34.9808181794416 35.2845100893915 35.4936690591336 35.7474160615405 35.9304139118803 36.0586111247591 36.1163502411922 36.1469359317253 36.1355687745911 36.1573883346503 36.1207343758853 36.1962117198451 36.1784514703403 36.2385444410971 36.1694060933842 36.1408103199898 36.321036321758 36.3008213404941 36.2848436359382 35.9284882519583 35.799397535608 35.2605622304816 35.0247972734058 34.8824158526438 34.4842955966651 34.2427218435468 34.206928725542 33.9833496950131 33.8747916606691 33.8850108524127 33.918597929448 33.9923350896538 34.0722042129603 34.0441361862517 34.0321080429437 34.131484080982 34.3375899242361 34.2878513403123 34.5214992168056 34.6985386698147 34.4602484901514 34.4524848132008 34.2487773888564 34.2033568296932 34.0159456774458 33.9151138481066 33.8965956207759 33.8213661530396 33.8102167969143 33.6306249625697 33.5337094536848 33.4579169600696 33.5062271323199 33.4627902731059 33.5251963199559 33.6245339350711 33.6740392750864 33.7943815128989 33.9732366642075 34.0335617090842 34.1947838253088 34.3029181453349 33.9657837234989 33.6385489369086 33.6196030033015 32.7666447994238 31.8217915584783 32.2728100491588 31.7268297257127 31.255976611638 31.3397804233133 31.0139596094513 31.0253176971482 30.9241070992299 30.8953486490954 30.413290719547 29.954443845983 29.3327827492261 28.7653632747084 28.6690567334882 28.4825899475591 28.4286806762882 28.4567828420366 28.2972985231678 28.0221153266509 28.4218620337151 28.1498421411577 27.9823071319414 27.9189587216662 28.1467836952671 28.3488408806105 28.4859880263727 28.4107299331668 28.4297553421093 28.4024201610361 28.0219260078813 27.5076405028509 27.2521022238912 27.0953209832705
44.8840094763767 44.8554683440146 44.8177586055143 44.7684792795926 44.7221752973933 44.6522419519804 44.616412451694 44.577607437913 44.5370847974514 44.5174683728814 44.4867528523874 44.4694158770121 44.4808249466119 44.4545543921534 44.4711879383336 44.4602938007274 44.5208448950164 44.5932039587786 44.7483891984914 44.9278800663178 44.9870800187833 45.0993919830919 45.2139950809332 45.2887373372041 45.394340515383 45.4751649282489 45.5626407208228 45.6636366437577 45.7606592052129 45.9156174007306 45.938799388534 45.9959980480292 46.0072236463304 46.042331250378 46.1330378807067 46.1836051731699 46.1693408268936 46.1554158988534 46.1161190132057 46.0076473065648 45.8456453487718 45.4940816820056 45.2330630817911 44.3826678993678 43.2527643796436 42.1207437086143 41.2303526750909 41.6091529667809 42.2047550071674 42.1242063469422 41.3176957646341 40.4542476938122 41.2473741708903 41.925473241366 43.6727772828592 42.7050875547313 40.9163030276236 40.1158083946242 39.4020079105712 39.0824869197656 38.0330957485147 38.1252757167704 39.1940051282768 40.6301517486537 41.4754229306587 39.9675136588653 39.7483037462307 40.1901525156433 39.6014642880508 39.2116268307088 38.1658473161488 36.6437371663589 35.7314851528856 34.6551612633908 34.2292227590001 34.0068293563929 34.0378242130381 34.0944534037225 34.0307972960547 34.3145495249019 34.3818219817429 34.6378440041572 35.067190912034 35.1508900009461 35.4146972074056 35.6326213993401 35.7276859078462 35.8220387469767 35.8657496226147 35.8816818886795 35.8787473607027 35.8081198803992 35.7655170592737 35.8027838107771 35.940128492023 35.7995026752887 35.789397245417 35.9238362571698 35.9295800611938 35.9318113283865 35.8529854517609 35.5894795080339 35.25004240697 35.0946485043043 34.7760220599165 34.6523083530052 34.2532542804656 34.2076319197741 34.031511123943 33.8628819412747 33.8244725891898 33.8214810932255 33.8220616406118 33.8730478624194 33.829278901312 33.7986564437051 33.8235556576254 33.9438368431287 33.9520568363045 34.0523359125973 34.1188622904212 34.02741523927 34.0884832306489 33.9035592578518 33.9211730325872 33.8216643978978 33.724446223516 33.6396835311328 33.5746069684748 33.6681374025948 33.4677986118425 33.3817753904196 33.271836297251 33.2916070514745 33.2610996603899 33.2962850949207 33.3548858547127 33.4977498083326 33.614821043235 33.7686477980055 33.9099040954358 34.0337640046584 34.2390998732551 34.082182681818 33.8214761046882 33.6092860914869 33.3267827640542 32.6749840384134 33.1703503730633 32.2983624985932 31.7544524474639 31.5219093309678 31.1192388840354 31.0994768359435 30.985393123176 30.9286565286723 30.5882484885705 30.2442981361883 30.0494533387468 29.8277966263938 29.2981807946773 28.6905405910772 28.6123182114577 28.708709392039 28.509124312259 28.2252653164187 28.5915424903093 28.5596984935508 28.4352887517452 28.3313418594487 28.4314096618475 28.7519169322392 28.8931895428747 28.9404727807637 28.9447701009241 28.8816924011817 28.5359437647891 28.0439337802828 27.7758143716929 27.6565418717157
44.8517081233415 44.7898663745532 44.7642083748608 44.7247781088413 44.72879851723 44.6551795897322 44.6016221453606 44.5254628800467 44.4684323189356 44.4597173317455 44.4416732761524 44.4181613737234 44.4219831476864 44.3942445625488 44.3794608426191 44.3825670236955 44.4118708201786 44.4500552787653 44.5857074222431 44.6897484798711 44.829337768216 44.9889377828967 45.0616553664217 45.169107007396 45.2977988957644 45.3798520180215 45.485964390513 45.5881010698863 45.6699381387126 45.7668634322096 45.9117703196208 45.9583380775808 45.9556066898735 45.9896752781269 46.0280682985403 46.045310613755 46.0753297376468 46.110740140981 46.0692961557026 45.9701849002952 45.818858335044 45.6079887465047 45.1364628314861 44.4243078504268 43.417318261218 42.4538500717485 41.4131490889855 41.5982235733137 41.3757097912262 41.5642808879141 41.3687280127765 41.1862569448816 40.9026959275371 41.7660347472224 42.5735517708236 42.142141632916 40.6724893258441 40.5162865478285 39.7549935978304 39.1389594718908 38.6365238185908 38.9933314181083 38.6063934233436 39.4434383962384 39.9144488541919 39.3127644269943 39.0976141763137 39.3518313464082 40.1045694237731 39.7108571853426 38.2168423320069 36.3654728268878 35.7688037122585 34.7854292909881 34.2875464228562 33.8334337714059 33.8783050648696 33.8966105529999 33.510065007365 33.9896894561982 34.0808866227439 34.2507010735611 34.7639762811283 34.8047294023602 34.9406977643439 35.280413204202 35.4111703008831 35.5282780754323 35.5456598702023 35.5707732626236 35.4901411345401 35.4360622390894 35.3755877206339 35.3603769394571 35.569005849137 35.4337104684093 35.50953645466 35.5531216100309 35.5732662936384 35.5610147052054 35.6524007076168 35.3392122241598 35.0824417282027 34.9608918783841 34.7194367749406 34.59521033018 34.2906759502196 34.1512236974959 33.9437334957958 33.7512512904766 33.6587901740413 33.6668663435886 33.580164770429 33.5227997162485 33.565441881081 33.5623736804413 33.5611001914622 33.589187590705 33.6182220018551 33.6442833174439 33.5350875551173 33.5042088648575 33.7145764960105 33.5424607159813 33.5502119602144 33.5997062553604 33.511622153259 33.4103178874611 33.314738013377 33.3505025508314 33.2510964426322 33.1794326236028 33.0888081905084 33.0773797497512 33.068550292615 33.1324143465435 33.1795379426538 33.2484011607842 33.3615000177533 33.5396286862193 33.6702679249491 33.820951493951 33.9350136500373 33.9983286734556 33.8143903984806 33.6037359824664 33.7789823720338 33.2926715882919 33.0038924448387 32.7904934237288 32.1887917540464 31.7528018040409 31.164839953321 31.2174293221491 31.0135186441675 30.9004245940734 30.8242525206549 30.5080045838322 30.3362396590668 30.655341227459 30.2546655436113 29.3249848682151 28.8063440178587 28.9446243613821 28.6868754993546 28.1040732253352 28.5596716904956 28.922018503264 28.8177644820138 28.965033647885 28.8475614572261 29.2035586079567 29.2838921565674 29.3783106948836 29.4836012479112 29.3139069338179 29.0068027609836 28.6741376225195 28.3553275754002 28.0876024897142
44.7514182733698 44.7538441548853 44.7384942897074 44.6725639746738 44.6709441720333 44.6550813364754 44.619628125682 44.5060599531579 44.4375652946215 44.3771823880623 44.3930531627848 44.3679054367654 44.350271701708 44.364371396168 44.3062802708969 44.2973792169639 44.367321387622 44.3731341898594 44.4628234628348 44.515434409311 44.6422139403229 44.8156085029724 44.9434690903565 45.0542122382597 45.1517043990221 45.287653746441 45.3969502381807 45.4956249799981 45.5898421645095 45.6807147110142 45.7646556398451 45.8374441092376 45.8948483735598 45.9201430643998 45.9476756411479 45.9483000677154 45.977264847323 46.00212380941 45.9852397651017 45.9277081783179 45.7743464393791 45.6065580489149 45.2309174234991 44.6919224198405 43.6807292032862 42.9261135252015 42.3516329418935 41.7048385373857 41.4059357073061 41.6077322575654 41.2049580319474 41.0313314601564 41.3393464605208 41.8296292588455 43.1694384814876 42.9141558177638 41.6758112440153 40.6408105089401 40.0130936985455 39.585357136051 37.9771697664446 38.5701735079015 39.3042463005757 38.9855232072557 39.2805603227388 39.4137328287345 38.8605652005194 38.0757064503269 39.4064867971857 39.1454756192702 39.1623667342856 37.1072768335114 35.9889744990216 34.4599030591234 34.1866997549755 33.9030212207075 33.7120826527787 33.7375928196965 33.3380840650567 33.6162368681613 33.8593699497479 33.9676003798833 34.2935813846062 34.3151874423563 34.5642827032065 34.8102358974733 35.051875546089 35.2566727853322 35.2562497069167 35.2357507689672 35.1475311733563 34.9566604831097 34.9447914631886 35.0380138475963 34.9344988784625 35.0959133852761 35.1566389732931 35.1267974523114 35.1676524952017 35.2369255783614 35.1660143756223 35.1741586600256 34.9797736305367 34.7325730232178 34.677238810894 34.4172087964666 34.1524614325074 34.0361498979873 33.8402618906971 33.650388756321 33.4321062230035 33.43442157475 33.3702173277431 33.2303831300753 33.2591723878939 33.3094938038132 33.3626093592602 33.283705712414 33.2590639029945 33.2704615417955 33.1445280573015 33.041151989674 33.220694301868 33.2370004929716 33.247051418835 33.3415625332327 33.2802017619004 33.1604468258559 33.033941097616 32.9795306922572 32.8444832942799 32.8761663138109 32.8413616862319 32.8137781326009 32.8346955755463 32.8489772760186 32.933814905177 33.0284530826658 33.084045106506 33.2516250899691 33.441552613138 33.5571279077011 33.7906295227869 33.7523284182887 33.7070911837836 33.7725635291831 33.5434519044108 33.3249280348092 32.9642085500433 32.8808611393906 32.4568108224101 32.2200753339526 31.5795415414919 31.329532975637 31.2541858459284 31.0402948615537 31.0200280730474 30.6893957158409 30.3791334836596 30.8989128615673 31.1935068930915 30.52245758534 29.3615763102182 29.2278249354292 29.1416500975828 28.3387568157748 28.7027165623949 29.1309195696935 29.2197047088112 29.4788800233639 29.4910035696638 29.675842671735 29.8492545161698 29.6850746096818 29.9979477684675 29.9432603308224 29.3456412431056 29.0285841769938 28.7959499910188 28.5568212259191
44.6643170179661 44.6456526151933 44.6350134556976 44.6474749660465 44.6158207315956 44.5742381255299 44.5508191529534 44.5120605680302 44.4464884203643 44.3522338169368 44.302444325275 44.3050193163618 44.29763784666 44.3256761371307 44.2870854288227 44.3012931578642 44.2892518797537 44.2829777196489 44.3737726905974 44.3393748016651 44.4817122004593 44.5924770121691 44.7815176755119 44.9773109026677 45.0179455794372 45.1239332416809 45.2722065421626 45.4103510946098 45.5021885600438 45.6077535937326 45.758172529343 45.7926710607514 45.8131190252869 45.8833335567351 45.8419110135221 45.871131722346 45.9159170611624 45.8875359611961 45.8854108610411 45.8887120860467 45.7798834559972 45.5898265025191 45.2986916881045 44.9298877614031 44.4291058725435 43.2796029627881 42.592539559071 42.0636504536539 41.863309420326 41.7870872094513 41.4495480359291 41.2077365027156 41.678571221741 41.9053379057949 42.5628501641481 44.7211737164646 42.1962581850443 41.2994436637731 40.0035798701981 40.0122784340574 39.5514601729834 38.897967821414 39.2340953646384 39.2872278436541 39.5945054624274 40.179838549921 39.1061227387653 38.1607720474528 38.7382351440778 38.902573275249 39.0003179224495 38.6806860520997 36.6810235764353 34.9504789336617 33.7371536665763 34.0649296138837 33.7320811880877 33.7084723395784 33.4589424647314 33.526297132825 33.7523184345581 33.6729974663956 34.0528668587902 33.9019964577814 34.2878768047861 34.4950995694502 34.7781218607742 34.8913549844026 35.1275668716235 34.7991891687892 34.7043564594941 34.3286204819332 34.3223958840123 34.598514147048 34.4736528499679 34.4923072171032 34.7089602823388 34.9971515426723 34.7026361012286 34.7787791367265 34.8876140447963 34.6560310237639 34.9500881378245 34.5640214787583 34.3862897668624 34.164898570525 34.030347986645 33.8476609486979 33.6871950925731 33.5117139829736 33.2956580175312 33.2058765752454 33.0976160054461 33.0399419904721 33.0143071216501 32.9964070080188 33.1181984659539 33.1022150152176 32.9867360850807 32.9384961235706 32.8791835612643 32.7710427916011 32.7901035062483 32.8646793055864 32.8899475641115 32.954930630005 32.8807384750195 32.9305756648004 32.8418159232554 32.7354738305208 32.3891032406161 32.5029044773292 32.5246299628685 32.5433697791474 32.5542968628639 32.5921785595467 32.6155322413735 32.7391982246447 32.8690610718629 32.9402067660974 33.1655854565542 33.3869995452007 33.511359705223 33.7699930389486 33.5199658869183 33.5133231693074 33.5982645973265 33.3887969852346 33.0230763925068 33.0216277846909 32.6143724506587 32.7408435728734 32.1351502279481 31.5929899307184 31.5220138155707 31.3738867292737 31.384716433096 31.1968149937284 30.7728785284713 30.8287080548104 31.4435157520493 31.0911195712794 30.2668052742232 29.7247472663012 29.7779753705721 29.5071748502475 29.2045956052637 29.5625134065685 29.6696824875537 29.9749149491242 30.0046143077179 29.9203413588921 30.4723625202386 29.9997859262061 29.94035019755 30.196703421394 29.8076114176386 29.4016903443167 29.0906892954092 28.9731696096723
44.5683572003026 44.5085917882569 44.5299072273749 44.5469577295346 44.5622645855302 44.4857471721571 44.4686002643156 44.4611795168188 44.476298028647 44.3361214883904 44.2608479918937 44.2581410701835 44.2465124472869 44.2617810269462 44.2493938859439 44.2721169929694 44.2461040104039 44.2360712648566 44.2946612458279 44.3182149650975 44.3932798595795 44.3758015996625 44.5674509296063 44.7466761939783 44.9560699721642 44.9788510060529 45.1062838994024 45.24393797033 45.3912875798547 45.4770565313583 45.6113092820593 45.6878968029987 45.7157777914776 45.7678439939101 45.766861938253 45.8094505743588 45.821242363003 45.808833274138 45.825958050604 45.8098119043331 45.7367138996243 45.6330486761132 45.3441155817937 44.8959294908683 44.75449679484 43.6996489585169 42.8747144407898 42.2642302103184 41.903489039737 41.7844105286378 41.6357582637795 41.1408892527391 41.5443645261092 41.7482934621571 42.0818786079386 42.7054978761469 42.1159518303021 41.956010412583 40.6281944238303 40.578405653928 41.8022478634847 39.7141991905213 39.3898859350936 38.6319825996986 39.1998612156375 39.5634581651355 39.3056251888161 38.9504568007881 39.0703630004161 39.1283735687221 38.6188575159669 38.2958458114628 37.0299622254821 36.1782111893242 34.2305400749423 33.8845310800314 33.7078385138181 33.7706378442991 33.5157356610001 33.5673363666097 33.7999625553249 33.573858808338 34.2328327143522 33.9688053859258 33.5257604396407 34.0396717436804 34.5691907557111 34.6579650635887 34.7258330718009 34.3337495758918 34.3284827776516 34.2104906951029 34.0940547988295 33.9620591620085 34.0181679021259 33.9142868133896 34.1279050359454 34.2408496968101 34.5521284080318 34.4151348106525 34.4241198692406 34.2891267817072 34.338647141594 34.1962045888141 34.2380730081734 33.8642976401893 33.8045777262896 33.7071446799402 33.4801075702545 33.3240981825655 33.1728870951594 33.0187869802333 32.8886246138658 32.8185181707976 32.794707545872 32.7467019977888 32.8354364085634 32.8756061654449 32.7922040069208 32.7656012742687 32.6643916413674 32.5059964705476 32.4814267101273 32.5446523937 32.4681999860801 32.5690772605244 32.586961863827 32.5258815955895 32.6796672848059 32.4230919020255 32.3088759461691 32.1553454318971 32.1702972505542 32.2259011210076 32.2511014463438 32.2810872242591 32.3037355632272 32.4396399600823 32.5929483953788 32.748405063472 32.7582211776165 33.0920100283192 33.1411857807253 33.3101203905547 33.3716635665793 33.2692836641815 33.3436400844756 33.2860466836903 33.0481834287837 33.0891182946546 32.9070464487261 32.7423146964674 32.7094775103375 32.1128125382503 31.7366467341182 31.6548181059565 31.7175747188717 31.8224637756425 31.7805187210167 31.2647785259909 31.6326179691344 31.2823140501607 30.9123653394379 30.6986589264558 30.2683288005022 30.025480563459 29.8895527543051 30.0082590217347 30.0469628189945 30.1301976812702 30.4219184373147 30.1552469074514 30.2911734279993 30.1885550762699 30.0868157322103 30.0981386016489 30.0704373274262 29.7601934708667 29.4479450695728 29.4340707995146
44.4544965152225 44.4169470527097 44.4505043539036 44.4687807320993 44.4545576927251 44.4342974339874 44.4181355268462 44.3657469034807 44.3977922308175 44.3373516333208 44.2985100425431 44.2131722954406 44.1938215096405 44.1916498744991 44.198008657562 44.2269834797834 44.2130679138088 44.19681343086 44.2290608837099 44.2386110292725 44.3118350000698 44.3395890254645 44.4203090464143 44.5023547312139 44.7511921799674 44.8339175355697 45.0151933007145 45.0800830550583 45.221141259431 45.3374146297943 45.4576898601663 45.5535337745395 45.6180903337989 45.6879661551645 45.673223300156 45.7205458504039 45.786025520314 45.7363686503758 45.7494540004713 45.7504856130417 45.6999668463995 45.6008401881736 45.3678278071576 45.1118469241078 44.6699019870811 43.9177823383686 42.9420270511109 42.3956521252954 41.981652643129 41.7787716916134 41.7564575719799 41.5530929738447 41.2708303349027 41.7216182249557 41.8564731367628 41.7546665082899 42.0673692432252 41.802975323196 40.229115779048 40.8486705062552 41.2281516752316 40.1890690135475 39.5556582896144 39.01883317021 38.2185673640285 38.8365494789508 39.3259095976028 39.2843942090804 39.4030213147468 39.0758449617387 38.4410358549873 37.7281488408136 36.9240356954506 36.4999399697248 34.9001467051603 33.9710658489968 33.4192573827075 33.8450892081799 33.7574031086804 33.6967344400847 33.8064923707984 33.8496270649932 34.4328970078537 33.9385273707132 32.8336693665238 33.5189708450945 34.2066506346221 34.5111215428535 34.5578133130847 34.258332157908 34.220696531944 33.9118847478811 33.8946879912858 33.6819066619012 33.6406514755109 33.4953952266891 33.413209551078 33.2159827784481 33.8463553091891 33.8875057666825 34.0826570157894 33.8443649802588 33.9228393054397 33.7344633189478 33.781560952832 33.5621513364701 33.5317569173185 33.4609370389731 33.2965052557442 33.1226687844876 32.9965550967401 32.8443436208813 32.7091855912585 32.5658220215493 32.5288971224414 32.5550547664767 32.5924059275215 32.5722747627617 32.5701612809052 32.6068460746694 32.4856054961826 32.3204568389887 32.2485227912487 32.2396311139231 32.0695997980465 32.1591056007714 32.2625042069815 32.1429788588776 32.2516013987252 32.1092844759526 32.1315927932752 31.9683383180033 31.9095652788535 31.8972148413815 31.9684532431863 32.0102506651942 32.0382808044068 32.1487397805338 32.2318519060882 32.4102963149503 32.485666812188 32.6177899788442 32.7981305798786 32.9432112456468 33.0752235208547 33.1203515159489 33.1010347207949 33.086528132086 33.1553279609928 33.0381929182105 32.903667139617 32.7603034353985 32.7447434926655 32.4233795917048 31.9737467858324 31.8955508273255 32.1453319220313 32.1676388971129 32.2626124678508 31.6788119045546 31.8980955006476 31.7762386667762 31.4297268408892 31.4563422135659 30.9447149594971 30.4275799016581 30.4330981419129 30.3530353099863 30.3342662251497 30.3086379959295 30.4446437684606 30.3459386340429 30.3269245058248 30.3658248343004 30.2288516158309 30.206580804587 30.0790699586388 29.9668000877249 29.6467443001801 29.4680043719746
44.3771570834521 44.3338319456957 44.2716207024283 44.358025526772 44.3637906441469 44.3366379435347 44.2679867617028 44.2474961786659 44.2561422639454 44.2731739409433 44.2603603340414 44.1478517351439 44.1326414473853 44.1239630989425 44.1447430579324 44.1614247083807 44.1763799092385 44.1432532878993 44.1733824553006 44.1826469342946 44.2356076827119 44.3029898107557 44.3450763258311 44.3666062134225 44.5600993532621 44.6869246665029 44.8492388988761 44.9286458563162 45.0565967580391 45.186378976767 45.2976485294012 45.3909033716956 45.482487331284 45.5597562319481 45.5691435867647 45.6248883218059 45.6812990316446 45.6423002203774 45.6683219976406 45.6610028811107 45.6321655122125 45.5358955932267 45.3649618590799 45.2645812808605 44.6813177924506 44.0997700109562 43.0088607087475 42.5601117493981 42.2103938549518 41.7768884354824 41.9927385713556 42.1417182656144 41.5712024859976 41.693317288892 41.8600171548184 41.6582064416838 42.3178271453659 42.5221001340784 40.6861036729852 40.9249935174671 40.751071996793 40.4223321782496 39.8293730333352 39.378217670223 38.5495909320541 38.8737969919147 39.1411203368796 39.3238065413626 39.4092947404814 38.9978672917094 38.3299829725239 37.4456155281091 36.6654725363189 36.1856871167225 35.13321511263 34.159862809512 33.5641203264807 34.0703789497066 34.2732015096817 34.0425356353511 33.9434497599367 34.0136006208023 34.2482954118661 33.9462935447225 33.138249163052 33.2900558516081 33.9695114645195 34.2802551455889 34.4823117934177 34.1825524668594 33.9081676062485 33.9174583340774 33.7573070946899 33.4276837606689 33.1282969015757 32.7522901828975 32.9718948144774 32.7858419626021 32.9135289280177 33.2538469742254 33.5351217519242 33.4690344633469 33.4492363654832 33.2922511958122 33.2290399467469 33.2184260339348 33.3934036877164 33.2012813389972 33.0675602521755 32.9154937469219 32.7854686386819 32.6503550635053 32.5202609016121 32.3552919773424 32.3155345592529 32.3649382908445 32.3794518583138 32.3198898914471 32.3440156856831 32.426759187127 32.3200842961263 32.1510701703388 32.0178269575175 31.9376799342566 31.736137885712 31.7733820395093 31.697229993089 31.7748851869762 31.9009630251056 31.801191936287 31.8910938425489 31.7435085274639 31.6457847799385 31.5730679763563 31.6378113131614 31.7024834521554 31.7535341947949 31.7766762501607 31.8684288046428 32.0041939016588 32.1789538590673 32.2778424567021 32.4519094954099 32.6474380321823 32.7176413681004 32.7969926841304 32.8358468136623 32.8907625081369 32.9816389868535 32.9003812163932 32.7332958833901 32.6803835622539 32.6075094800224 32.4253548615738 32.1189971205796 32.1071746908826 32.3205036048299 32.2304362050926 32.2268457019056 31.8805393709063 32.079292920717 32.1620494918937 31.784112004599 31.8600249365104 31.5342531123745 30.9135115214066 30.8142882591157 30.6334306699662 30.5998710349479 30.49613383952 30.4763054359224 30.45542621365 30.4509377634109 30.578171852642 30.3303712373339 30.3959365277807 30.0773926631143 29.9428979130944 29.7629281124887 29.4863108946382
44.2793424049249 44.2724887803542 44.1258531376336 44.1848137257904 44.2533534807921 44.2382924085527 44.1122167698204 44.1167073848889 44.1069036128833 44.1317188144689 44.1188631482542 44.0565567143299 44.0534169915683 44.0603445646007 44.0939619602912 44.0994634194344 44.1157996796803 44.0904640961492 44.1241618102618 44.1425484873939 44.1717425443809 44.2266430550701 44.2808551919613 44.3314165528466 44.4318343353419 44.4942017795736 44.652570868018 44.8109043389038 44.9547490659247 45.0283756464784 45.1324023686661 45.1901432545287 45.2993915521102 45.3866876224821 45.4409320868464 45.4807025815514 45.5107674129752 45.5228977466635 45.5641217371951 45.539041678842 45.5286727920147 45.4622604229842 45.3643395757334 45.1983173190135 44.8076904068495 44.393566338928 43.4319917912651 43.0310463378985 42.5012006967159 42.164377901527 42.5158740898079 42.7781242517585 42.1953139179987 41.8746884985165 41.9097167422365 41.5488990622146 42.3613821327075 43.1343167372661 41.5505054550368 41.0770451526264 41.2504119990705 41.3158872252726 40.1527334371956 39.6603426500245 40.3973721702584 39.380841337744 39.2126712417924 39.4556804327816 39.2891779188134 38.9095412232444 38.0833288104909 37.3388946280951 36.4489604289701 35.9095774430956 35.1365933278681 34.4404456018255 34.2166682974945 34.4655595458 34.8177049966861 34.4340108786848 34.4186270590735 34.0802033271076 34.0392924077827 33.9334802970745 33.7122047168248 33.3740046726675 34.0004716076387 34.1152464896868 34.3898333408784 34.1191288448722 33.2825683726998 33.8405214542505 33.6700880535146 33.2101401018544 32.8648408789928 32.4107660309394 32.7669903868786 32.694269592118 32.3148584853585 32.5351755928419 32.5706472770351 33.0148131239033 33.027503886027 32.8534220229009 32.7450783404582 32.8089464632513 33.1072587545916 32.8957870682331 32.835182517305 32.6939290016411 32.5765556150304 32.4564172846858 32.3297631754608 32.2019655701897 32.1598797132252 32.1798644209411 32.1775036781531 32.1542324826237 32.1610703939875 32.219243731469 32.155718966385 31.9900965847622 31.8193970144482 31.6579613807962 31.4157308837489 31.4491944201942 31.2424027636489 31.3771722507709 31.5925611940698 31.5313692781846 31.550052329525 31.5049772654933 31.3334095164184 31.2274365379856 31.2889265298049 31.3474216539449 31.4165713200509 31.4309864738092 31.5501847525417 31.6537906671812 31.8313470151373 31.9863303781175 32.0869856237339 32.2355881835144 32.3242615975491 32.3755752880852 32.4936851336751 32.633021364528 32.6557981149199 32.6598549129091 32.6200065908815 32.4900295989324 32.4376549673401 32.2578555578249 32.1117574496954 32.1634415891572 32.2121379391082 32.1325256408122 32.0704768638997 31.9121459812367 32.1170851963928 32.1487946026368 31.910351609114 31.928331965675 31.7192478122425 31.3091210756497 31.0531035796839 30.8523803802898 30.8289232891904 30.6549726933034 30.5894603890009 30.5122745478434 30.5015512033533 30.690667011221 30.3906041534801 30.3835107269599 30.0595315849683 29.8357285099446 29.7579143875411 29.5557908862721
44.1257907431431 44.2079993906813 44.105662709773 44.0144066567018 44.0906151532103 44.1666269461871 44.0483972847613 43.9892580641942 43.9712920273828 43.9558281846294 43.9511175816299 43.950135241695 43.9593429553214 43.9946128656623 44.0360007649988 44.0500808627116 44.0354725140404 44.0491129282017 44.0715466051315 44.0609968421368 44.1209201099222 44.1560002871965 44.1940086908021 44.2823362154838 44.3342444074403 44.3250687998771 44.5178258246045 44.6955718611074 44.8766593575694 44.8877692270683 44.9783933051544 44.9970095594118 45.1063496555302 45.2096321469772 45.2856331738195 45.2913949765268 45.3444647168131 45.3814019417587 45.4240190720976 45.4134189648929 45.4163295983795 45.3807253926739 45.3553087350168 45.0651439415399 44.8581912481339 44.7236972585369 44.1239371864534 43.7792972927222 42.8894839124908 42.9784236219641 43.2030778027362 43.2854155793284 42.5668565742532 42.2487513042507 41.9325799620072 41.1999428511373 41.9133250871021 42.5537202010015 41.6292413744829 41.2090714368865 41.6309152495068 42.2740183722103 40.3583576033013 40.0075588500705 41.7653929307541 39.6421786636675 39.5896365270398 39.6667540249283 39.5302932098974 38.7849746016338 37.7857424652666 37.1845973181175 36.3023499243548 35.9114662113259 35.3163895605365 34.8907704639234 34.9390929307373 34.9198058820755 35.1484804227009 34.7205607377225 35.0814357975325 34.3561158852027 34.1862518989643 33.8705051530887 33.7120421910696 33.5675039329589 34.2674305878719 34.3376154279391 34.348376176366 34.2106736301581 33.1094175350461 33.6046956807234 33.6679598249137 33.2378161506396 33.0025888027637 32.7544774085736 32.5933440380317 32.3809672539102 32.1822888723929 31.9675872874873 31.6103883322308 32.2735710023188 32.6728781648007 32.4586421087553 32.3415788938525 32.3645589633835 32.5498384676559 32.4963230724699 32.5994032559509 32.457598209442 32.3737405620348 32.2779051573465 32.1633595026601 32.0762813299779 32.0179839043623 32.0273283652217 31.9972597606926 32.0256014866959 32.0325079203259 32.0208845461456 31.9906333571955 31.8608449508464 31.6802397755078 31.4390917530697 31.1492913698408 31.1601632696477 31.1071777656403 30.983268542843 31.1799724271503 31.2538461588502 31.128559477338 31.2580515872797 30.9985494613966 30.8829025045924 30.9662526066915 30.9987972476793 31.0168599212302 31.1506521314838 31.2361550535961 31.3359155012388 31.4721972105847 31.5623096221938 31.685097684155 31.6926025411551 31.8534166676337 32.0122408560903 32.1186926090075 32.2487296442022 32.389402153084 32.3507071304158 32.5056700799816 32.2782649959557 32.2013052771925 32.0739916599344 32.021940285965 32.0132456555585 32.0062470044679 31.9790245138478 32.0206223791925 31.8870418811301 32.0065673601562 31.8601148538512 31.8094633290756 31.777244451578 31.5395232302566 31.3960124751293 31.1914619457314 30.9970663904283 30.9321029319691 30.7569990695671 30.6426012335332 30.5453424379798 30.4655311409833 30.5681533699199 30.3646780384291 30.1556197161059 29.9628900696996 29.796551387274 29.6333145784943 29.5270054662031
44.0111973418524 44.0367430551883 44.0169581066372 43.9701276127993 43.9587673222483 44.0071464218351 43.9547232644066 43.8936481636081 43.8401547160065 43.7929000625902 43.8266552154149 43.8467668915994 43.8718670048224 43.917129189581 43.9558633330594 43.9755676350959 43.9742059642459 43.9942304103251 44.0007053436021 43.9504373678258 44.0724072580481 44.0837692812929 44.1281467614517 44.1211913687856 44.2626270930547 44.3752719049237 44.4122166925569 44.5026949574137 44.7021972160314 44.7931530623878 44.8543317190616 44.9152362242811 44.9689047264583 45.0296275295749 45.1403518154117 45.1701375505056 45.1976050311634 45.2209065975303 45.2805254040269 45.2955824489924 45.3158007258663 45.2935668576711 45.2522223063434 45.1348895858954 44.861967538158 44.8033709157303 44.3836423444147 44.2107740502315 43.6100073280148 43.507871833387 43.6509353340012 43.3285470138808 42.6706316114563 42.1998147189066 42.0678139138929 41.2203900183258 41.6010065793513 42.1701749920245 41.3334282165071 40.7394570330141 40.9992350589813 40.7902861093611 40.3622402749887 39.6573301604791 40.2080454345507 39.4950428962625 39.3744471087129 39.5236016919401 40.3871931841121 38.8155327460659 37.7652034941878 36.9498220031056 36.1460050418302 35.6710413472086 35.5587337319873 35.460092822508 35.3608469948164 35.2858527827965 35.3711042464248 35.1273859170008 35.3600990287748 34.9206716598231 34.4119915246314 33.9972340082014 33.7050795121942 33.7321999548169 34.6583806710716 35.1067760815092 34.5873400204245 34.3907223919577 34.5008966633217 34.2453839769978 33.8995100376491 33.5084718871564 32.9274395831951 32.5104494526006 32.4525726315147 32.0377883276731 32.0255584056058 32.0029568108441 31.5659106180602 31.3694489139745 31.9076011602863 32.2467531776372 31.9785600779019 31.9450307496661 32.1706903106742 32.0854873137974 32.2101709855386 32.2185328278894 32.1506099563243 32.0739724947827 32.0232153566662 31.9546824075523 31.8892424040376 31.9071506808047 31.8787947535901 31.88303269783 31.9173713153498 31.8996854272085 31.8381989949851 31.7619119929247 31.5360207008574 31.3012516106976 31.1127232668883 30.8450678381604 30.8360402673698 30.7149279665296 30.7788088733506 30.8279833000502 30.8111366185445 30.8056053031791 30.6813446877289 30.6292437694624 30.63380269723 30.6889676881994 30.5662641015502 30.7294395048937 30.8286891604825 30.879734873318 31.0118055731565 31.1086419731109 31.2101390302868 31.276531480212 31.3084160581912 31.6208873828086 31.8221538911919 31.8359731581754 32.0204842546171 32.0659439217058 32.0284845985583 32.0683683698011 31.9424168150564 31.86224216957 31.974437751962 31.8264461341043 31.8154387988147 31.785643706959 31.8577569708795 31.8238826366755 31.7297383935953 31.697678355614 31.5956203328989 31.5752896742906 31.4491227535658 31.2380204789603 31.2714481648462 31.0785804612872 30.8476238250315 30.7690959034705 30.601342452827 30.5239863170505 30.4167226979697 30.2807001416439 30.1753722657856 30.0806999174057 29.8895240348171 29.766456916815 29.560461219402 29.3918683442767
43.9168783614674 43.9225609992279 43.9249143022938 43.9066779879044 43.8778624079616 43.8065698135455 43.7967884463977 43.8051336829326 43.7562379360068 43.6992070053369 43.6884261013564 43.7602495198938 43.7925026736272 43.836660533438 43.8881844617011 43.875504307452 43.9075940241154 43.9304379654214 43.9342136013063 43.9538365079118 44.0072383789622 44.0123436192193 44.0533442113574 44.1071425828632 44.2014778732565 44.2875161423293 44.4439919080827 44.4853105699146 44.5890710455193 44.6918054129648 44.7632369110225 44.8361253362095 44.8914038352589 44.9324673474582 45.0120236573949 45.0602417206384 45.090262235592 45.122581254401 45.1538280075339 45.1648261043274 45.1797807318364 45.1702930095324 45.0778442231807 45.1126663329843 44.8810925655527 44.6703284383526 44.3507726749662 44.0699587036883 44.0318962033649 44.0966647006083 44.2979330296673 43.9772780103116 43.0393729513434 42.005397846855 41.9349746509724 41.6675460437041 41.3196240849666 41.868962970745 41.3272095257723 40.0659754564723 40.9217746389141 40.7591444867756 40.4540057337577 39.0174062904314 39.8757786814675 39.5833597045169 38.4666961914336 40.0492516280318 40.4879126547396 38.6774292607043 37.1903758632063 36.4726901165583 35.7991247705688 34.8222169781687 35.3677888864439 36.0239623201523 35.9251540124471 35.531022838873 35.8913601067232 36.143679794954 35.3696730978636 35.2014571124446 34.7218498728534 34.2188838397543 34.0103620758513 34.0395103353419 34.9973856931406 35.9653796609317 35.414422162989 35.1723296129331 35.1287966525643 34.5984492995976 34.1912663230494 33.5969754352037 33.2658710431903 32.6534657108334 32.2444209970904 32.3629252231042 31.9410590484679 31.8983498907391 31.6239345868195 31.0146105440319 31.0951542842446 31.6242833728807 31.9127487775089 31.4273607738683 31.6001665964997 31.7629388873505 31.7582450686621 31.9054057732412 32.0451500987082 31.8029028494021 31.882332884709 31.8666919400914 31.8153656098822 31.8242053773754 31.7814657148372 31.8010436862105 31.8307760393265 31.8016179985407 31.7866569585666 31.6935586395436 31.4296910173358 31.12952429129 30.9100492830739 30.712326533875 30.5906856482672 30.4482299043285 30.4003573738703 30.4731163964992 30.4134970397817 30.4822800296715 30.3224723172591 30.2747487188824 30.2926650721115 30.2422604670932 30.2949324816257 30.352951061877 30.4158163864511 30.5780729840163 30.6085614754895 30.7104792601894 30.7516495182695 30.8099478501801 31.0202070248015 31.1989877434521 31.3618014301138 31.4741001377304 31.5934900543082 31.4208622240809 31.7145708204368 31.635789617283 31.7010542491529 31.5556908094068 31.6583283694854 31.6118640321894 31.504369126247 31.5599716950039 31.5416721643158 31.5728219383014 31.5262978840194 31.4717146320309 31.4027455125257 31.3541483766453 31.3165626794663 31.1105997156602 31.1019533718016 31.0708328481016 30.8235368571054 30.7008583949449 30.5625723686226 30.4299063769643 30.3117807815422 30.1574284781081 30.0343720655439 29.9864380513884 29.753689878177 29.6215659642424 29.4484454301799 29.2773511074786
43.8226414022942 43.8204266161497 43.8327535772024 43.8108459839519 43.7907058791374 43.7381918708779 43.7231600477869 43.6980506831285 43.6986301568088 43.6644850989683 43.6272297026222 43.6683532027511 43.6736867336961 43.7459550282262 43.8105950900595 43.794051082487 43.8284902086288 43.8415182434923 43.8656863179885 43.8864592647692 43.9200407286877 43.9519160716694 43.991725818381 44.0253581208276 44.1082414732527 44.197616564245 44.2727767772707 44.383488837161 44.4972290724271 44.5947440829979 44.6876012888961 44.7505847372174 44.807023357613 44.8547918692681 44.9187914628811 44.9544001217836 44.9868602554778 45.0234164347265 45.0426419564747 45.0518974507238 45.0224397117807 45.0339766589696 44.9803251627617 44.9656475335699 44.8114826496831 44.6828754368514 44.4578067996588 44.2034567066645 44.1117418434785 44.0948384571268 44.2100413323338 44.0578301510959 43.5347951083427 42.9571162249761 42.5954982058376 42.1613940486884 42.2223058610215 42.3408665591917 41.8738862111187 40.0070137132182 40.6430027815299 41.0388241804345 40.7558919780221 40.0134554717401 39.8152337368135 39.1769870455409 39.2259183431713 39.7723130689236 39.6733754795713 38.8153262597485 37.3472090878949 36.3915159753652 35.0664549862163 34.4742847953547 34.7686629324389 35.6615146607749 35.9665229742473 35.7316053432857 35.9823478315468 36.3339074968835 35.6989479206409 35.5643077690262 34.9945875057344 34.515018350485 34.9066269161678 34.8722678499229 35.3725876147009 35.394930210856 35.9735974251602 35.7535866859899 35.4772647617399 35.0172582527131 34.9574250829401 33.6956211593319 33.389989324864 32.9242509419881 32.3574953270403 32.3466290957665 31.989995090433 31.7504515053163 31.3854993064122 31.1689391623946 31.1273330191308 30.8132018396057 30.5625510059737 30.7129374684041 31.2647323525723 31.3091400898773 31.5542869059068 31.5151598522734 31.7401841432066 31.7664406619465 31.7304098782125 31.6509196427947 31.7339905281923 31.7507131611292 31.6822633088423 31.7640873445319 31.7873368610793 31.7652176006295 31.8902567734173 31.8066244070393 31.4391357982825 31.0762765326414 30.7254274499661 30.5006996318532 30.4218283832323 30.234201502057 30.1801059858874 30.1454699864901 30.0563987003019 29.994840773935 30.1258165599416 29.9246429846974 29.9240808036173 29.9270252085976 29.9516300393858 29.9799778400069 29.8805500032669 30.0146609782695 30.3123599504249 30.2842532819607 30.375370798941 30.45361470421 30.5039488959292 30.8750451336444 30.8274513024141 31.0832211232392 31.2243528526783 31.0715505668407 31.2152484965557 31.1545640021965 31.377065660795 31.2661355966282 31.3508563170947 31.2826048027603 31.3460244417703 31.2991551916497 31.166306786744 31.1872826543656 31.2933922159312 31.2749627782454 31.1589295259174 31.1159351198719 31.0737581371558 30.9269179229505 30.9209393927818 30.8104336611937 30.7223253265095 30.5683698742189 30.461525212742 30.3332534359058 30.1470165938283 30.0413995951807 29.863113962768 29.7347311560775 29.5969760916012 29.503406913328 29.3402858085769 29.1504504410782
43.7278122774654 43.7235923016275 43.7400779761565 43.7224003173489 43.7064731882469 43.6763641588307 43.6670376718791 43.6314338802413 43.6205279891757 43.6124527611928 43.5995483058037 43.601517015666 43.5833371974566 43.636955110088 43.6955687262026 43.7136422667022 43.757228880874 43.7795165777323 43.7883245844428 43.8070892073179 43.8316312409263 43.8806975702728 43.9195125137639 43.9557647398573 43.997227193143 44.0964424452943 44.2027040860724 44.329391727631 44.452855766261 44.5105323474988 44.5961466663974 44.6684764947333 44.7300450603663 44.7629025969722 44.8220429669742 44.8544049172094 44.8797994699558 44.9067907231564 44.9325779058069 44.9442447120222 44.9225547108464 44.9295412720771 44.8926545236184 44.8619737379371 44.7912049096991 44.6490538380635 44.4668960081735 44.3005587604249 44.1984895236605 44.1726881980719 44.1265969422815 44.0040067035619 44.0259355317925 43.6777209604494 43.2574785605745 42.8884375393445 42.8328000495442 43.2957810722878 42.4985823284427 41.4400523523062 41.5922024143218 41.6234706873048 41.2283100713469 40.6558394570443 40.2482474988288 39.6426835144066 38.9486695254466 39.6643786517997 39.4085736679649 39.3476091438671 37.627392205641 36.4746682893923 35.0817504222137 33.8780583371978 34.4095136096011 35.0655464396618 35.5699417425443 35.8358411309882 35.822371418411 35.833572334005 35.7789651512684 35.841072966254 35.4504642600714 35.098252446317 35.2838342785031 35.8196009773315 36.0343009590627 35.8389562245573 36.0685845506772 36.2406774933531 35.7207529945142 35.4014475921492 35.0228487981434 34.2121958756099 33.8521530411533 33.303411033353 32.7422992975422 32.2760250211828 31.9427265781323 31.7722309271749 31.426654365517 31.1865148565122 30.9613843370821 30.7313144099803 30.4214928880552 30.3048570821875 30.5045264765671 30.8195785075897 31.1534700568741 31.2235686432144 31.3961250456859 31.5900102862668 31.5751573023665 31.5227323831479 31.5882037758306 31.6946979101361 31.6288513717738 31.617313417763 31.5729440454588 31.819183354028 32.1420177882443 32.0056522512294 31.3105362464962 30.9690462862995 30.6084274853145 30.3789707495959 30.2914333978421 30.1435081001526 29.9400952742545 29.8202723165864 29.6942199133378 29.4806650175068 29.6116340839392 29.6569072238743 29.5332761401345 29.5322022672591 29.536097365179 29.5581254001432 29.6293141938292 29.6641514248072 29.8566011845921 29.9134316595517 30.0368134477887 30.0946730653691 30.1941151103334 30.4623060733077 30.4901902660144 30.6166178149474 30.7920265893449 30.7834129298048 30.8265617037847 30.747687157245 31.0186913413147 31.0015617153041 31.0261786076327 30.9332477196674 31.0900920631428 31.1164808238433 30.8994013510696 30.806655853834 30.9761990308405 30.9877679876685 30.9072736161785 30.840868493284 30.8148351782838 30.7203609329152 30.6813233951852 30.6178860316835 30.5074878547105 30.4081202169414 30.3354511303713 30.1904715549666 29.9787095155016 29.8614556076477 29.6641542845627 29.5114573312234 29.4212298002429 29.2953681401383 29.1527987303072 29.0234025292238
43.6782172372888 43.6452740929752 43.6412305590549 43.6369389680516 43.6247239556994 43.6200939517454 43.6315464411707 43.5871083514951 43.5591566023287 43.5653253337452 43.5731430471854 43.5392374444182 43.5334400500639 43.5453558711069 43.5859110520129 43.611909866119 43.6623374168468 43.7173983269619 43.705187625915 43.7218980918877 43.7496383184635 43.8056684714179 43.8371779767614 43.8695380745396 43.9292707265347 44.0222024036058 44.0972450536247 44.2563576389322 44.3699486457444 44.4438471293912 44.5220917952114 44.5796360344699 44.6396099407351 44.6777170119177 44.7367664902346 44.7667893661078 44.7868968706132 44.7998595613352 44.8231212754221 44.8360658239118 44.8393436753892 44.8441127536883 44.7897772486523 44.7609885091787 44.7429070576964 44.5949173589219 44.459929592506 44.3443752623477 44.2553930014261 44.241082978699 44.1407564367078 44.0399665779084 44.1469133656761 44.0171343407078 43.8838468811479 43.5429110171192 43.3806043996742 43.6974034958459 43.3551692943051 42.7281318634901 42.295964520439 41.9502769063726 41.1663605034913 40.7074801556708 40.8346607278062 40.395784403825 39.5539429246629 39.690355436238 39.5220236678691 39.3028195536201 37.755131367272 36.2134863304771 35.2035399931733 33.8856852002674 34.227731991456 34.3134684770561 35.0550934904624 35.6120703136065 35.5986772599496 35.396186407569 35.5409651780796 35.6686519327919 35.7283107487344 35.5673959222244 35.4962011427569 36.1076549277379 36.7368601529401 36.4143952970073 36.2122084333983 36.3236438992096 36.0233851300176 36.0524873584705 35.1587598482096 34.6291721737513 34.1945456887668 33.787479639352 33.125077765447 32.5241362813584 31.9530877684471 31.7515032158288 31.5043173498832 31.199109787124 31.0811004251861 31.0785739713635 30.5033008898632 30.2104586981401 30.057544069077 30.1788379754657 30.7547588178306 30.9782074357666 31.1506215035164 31.38541955854 31.4330634876789 31.467197895436 31.4627443431268 31.6187057480022 31.6038110487431 31.5423162378333 31.5040399465529 31.874558900437 32.2922624699373 32.0630519019 31.2700341827282 30.9316407980203 30.5542732208255 30.2172262297107 30.2407437330633 30.1172082702254 29.7548365802832 29.5515516597326 29.2770884046224 29.2020389198237 29.2317508954096 29.2284643104434 29.1490514191222 29.1347431268725 29.1078961751176 29.1487803294401 29.2790238335104 29.3395068168631 29.5202528351182 29.404317122694 29.6650574872198 29.7407496966119 29.8411510205309 30.0049572723269 30.1186227726837 30.2093203584331 30.3646791232376 30.4620447565629 30.5227012362146 30.4636652816849 30.6236663110438 30.7148449967343 30.6681174733568 30.6172918745344 30.7466181148839 30.7706687486851 30.6455729001251 30.508820565315 30.623196136433 30.6458928528788 30.6288574720505 30.5405971099092 30.5040522738527 30.4868292596172 30.3936013977744 30.3487525670989 30.2669618023131 30.1750741347037 30.162488707962 29.9680404211908 29.7729271704267 29.662201153458 29.4900726835312 29.3393073956289 29.2207009228943 29.1023974941122 28.9755564204558 28.9479058420525
43.5849554351513 43.5533833914099 43.5324229810149 43.5460428320147 43.5498399304436 43.5580692144115 43.5778605518779 43.5668150071565 43.5209659394952 43.5245734048047 43.5327582482328 43.485180275012 43.5053943375231 43.490191318888 43.5038765017313 43.5109317617034 43.5542334442701 43.6156036172498 43.6133659436447 43.6355222520103 43.6706076801693 43.7194056374087 43.7490335629017 43.7736500703188 43.8727485675089 43.9610558276668 44.0486065668107 44.1794332014866 44.293410206409 44.3673297705093 44.4452960974703 44.4849937843525 44.5422366558926 44.5959845934082 44.6510117707561 44.6815801889936 44.7027130074152 44.7135216638136 44.7266704223691 44.7299227530909 44.7336359763972 44.7465411168639 44.6864360885564 44.6504748266301 44.6359737485551 44.5313399841912 44.441249807616 44.3445469786461 44.2792849069313 44.2460014565279 44.1949094222245 44.1448438799358 44.1590549162298 44.1611061947173 44.2118086068919 44.1996718200592 44.0267377920554 43.7934772221025 43.7744040035608 43.3876507818835 42.9862029881331 42.2494411924356 41.4738299522048 41.2802642765578 41.8267695595554 41.2730508525335 40.5873560869876 40.0267400497495 40.0028985852873 39.198508365467 37.8860355280817 36.1672879977492 35.1625160722271 34.4252374183248 34.246463023071 33.8953800323122 34.5613988029623 35.1578158086987 35.3058811633275 35.1278456843692 35.1566743750591 35.2661596939385 35.5843194808633 35.7488484888645 35.6752979695176 36.0731970616065 36.7731609377794 36.7052706065466 36.424924905537 36.3359747213418 36.2326056172897 36.2838395168243 35.5201975005429 34.9354261061299 34.402182292394 34.013614453458 33.5064274097791 32.9208096481527 32.2162624936458 31.8017475851062 31.4649885654934 31.2388040638844 31.1564097338115 31.0713345445711 30.3654476743606 30.1581897054825 29.9798458825005 29.8283246748529 30.3685455142942 30.7423482124517 30.9685755301527 31.2115034574482 31.3287814687548 31.4052201584046 31.4036819849675 31.5363415089324 31.6499589286662 31.6362981031698 31.7000499627188 31.9588075559255 32.4078044516293 32.1049755328702 31.4394972550309 31.0056581867155 30.5083563477565 30.1887440714429 30.2571757405289 29.9930969305218 29.5288638336118 29.3536440260673 29.0214869485573 28.9552671045495 28.9406681981382 28.8304984555419 28.7357381975898 28.7424862403354 28.6972239144919 28.7404565335201 28.843995726916 28.9259856693127 29.1261432777771 28.9861666074231 29.2410870130234 29.3636156851573 29.4428610828436 29.5617164480165 29.6930849116901 29.8184126945636 29.9501247625828 30.0864329299505 30.1888284494205 30.2119162313742 30.254766366804 30.3539837993064 30.2469529949202 30.3073873568918 30.3754670883292 30.3251950426099 30.3517536053554 30.2745743717504 30.2888522594706 30.3118408197253 30.2571210461168 30.2190189013682 30.1582103090943 30.179837288004 30.0931659965085 30.0185173862766 29.9826721309685 29.8765109926188 29.8442702534563 29.6823423058231 29.5308740784264 29.4445844444023 29.3079060878246 29.169635033275 29.0232817519526 28.9193668976825 28.8128762506878 28.7845037865262
43.427420964577 43.4332758720112 43.4255917725607 43.4505695560222 43.4764359579165 43.4779645810759 43.4894006973224 43.5393759612045 43.4844259879972 43.4895457781208 43.4802121897597 43.4499540644368 43.4737847810978 43.4601574819525 43.4543858576239 43.4438623555233 43.4583085941488 43.4865289620777 43.5152352446999 43.5500090406722 43.5936749958801 43.6265952409486 43.6613085318881 43.6964892613593 43.7905948794517 43.8883206954688 44.0482352781081 44.1138319108519 44.2327304870652 44.2756173667092 44.3533261878176 44.3976641335354 44.455086228105 44.5119709538418 44.5583954629669 44.5935113915086 44.6270657457424 44.6449069793694 44.6513694099942 44.6366855953725 44.6178842334122 44.6327601835791 44.6005169321863 44.5486193113152 44.5128671211759 44.461984803617 44.3871395521243 44.3139267159792 44.2803488731304 44.2104168197873 44.2347006733186 44.2381781080824 44.293516418835 44.2825902692158 44.2494130745931 44.6231598219184 44.4666973766795 44.1031251652656 43.6796138066173 43.5760967383151 43.5473100398422 42.8000697436304 42.6423554228062 42.3990354041095 42.7131237198411 42.1125628774829 41.1728408387272 40.5895889277455 40.4982651660804 39.4750574393461 38.379957741363 36.6887625970955 35.2321062672498 34.9335626882729 34.319091288657 33.8987597848111 34.2438802844454 34.7848641581397 35.0275188987066 34.9450497987541 34.8201189873803 34.8708768811032 35.1676196806399 35.6001914950217 35.7667268971493 36.1302522041929 36.2546765418315 36.6490811618253 36.5601892685063 36.5098836932898 36.3233446071714 36.0076072333216 35.7977918336124 35.3852319827014 34.6929530078589 34.0163336691959 33.7591750067323 33.1271139321957 32.6076126777734 32.0418974294163 31.4729145624301 31.277968720328 30.9685561343052 30.6151484869658 30.1331701432178 29.972197334151 29.9825012998282 29.9132495396083 30.1033934583401 30.535465469116 30.7649362400854 31.0567386793838 31.2321097164068 31.249204860531 31.4359389945036 31.4771215306694 31.7380386342822 31.8211970476775 31.917773355208 32.0952324602299 32.6108061707367 32.3554699553587 31.7435179392058 31.1153895646717 30.3517008189512 30.2922195520316 30.2305203313676 29.6856841791428 29.1734081511694 29.1837897099894 28.916192964071 28.6460134164845 28.5647687744868 28.5880505063439 28.3817157764964 28.3722494781598 28.2639493715211 28.3149200876681 28.4251025743099 28.4787126544781 28.5674676163391 28.7193578007188 28.8188840800781 28.964210270436 29.0578501652839 29.1532234720484 29.2723554175422 29.3912157968578 29.5283194068477 29.6773129415183 29.7868446607564 29.894598007379 29.9278412196598 29.9486380785624 29.8260946446313 29.9718909483669 30.0148626331232 29.942739919814 30.0249129470249 30.0230765026079 29.9841184652292 29.9939918477886 29.8233643157135 29.8833655552968 29.8093178359437 29.8028551359918 29.7770966316217 29.7034454600624 29.6563503996877 29.5515601766662 29.433546058072 29.3740738239389 29.2696861500354 29.1908484981145 29.0863303661025 28.9695129189039 28.8345977133321 28.7225855719072 28.6398549365278 28.5130918092503
43.3172582027704 43.3196370802841 43.3406978781744 43.3601593841272 43.3886815571464 43.3833115534786 43.3986293904488 43.4465302172956 43.4251249268542 43.461126681555 43.434099745333 43.4304260297357 43.4261111481669 43.4249950879335 43.4272578797759 43.4141788427455 43.3896083951168 43.3904684082703 43.419522808512 43.4612168610649 43.5189477579099 43.5471797144961 43.577732038353 43.6470608411084 43.6993056680926 43.7992651350745 43.9169821953462 44.0287117371129 44.114166323406 44.1958200725955 44.2697875717552 44.3272541614015 44.3831478729494 44.4322883199974 44.4735738155311 44.5098170042498 44.5664114037376 44.5811597640216 44.588424086091 44.5672065723014 44.5438700700184 44.5373270104861 44.5310213726975 44.4766749181535 44.4399571585037 44.3954509647094 44.3052310761393 44.2648031871678 44.2518821110252 44.1825104672908 44.2642872270735 44.3028853302363 44.3938494703765 44.3820032873959 44.3667628948722 44.3521108763718 44.2756958504092 44.5280887105347 43.9094139877424 43.5165890978064 43.0623363453632 43.3314282894168 43.6018286242796 42.6764434515606 42.4122832005016 42.5148931546196 41.4954506118885 40.8429079020137 40.4277069273339 39.6882757867101 39.2444234284994 37.2811129051674 35.8399131424621 35.0766720643662 34.224760803589 33.8563305613364 34.2779780549226 34.7329305783343 34.9602932754477 34.8749138683792 34.6137143035513 34.4659848964904 34.8838783397228 35.1631430835993 35.6607895395187 36.0917266937593 36.1655342894559 36.3160921075237 36.575743396927 36.6102759453755 36.5234017103547 36.124679031614 35.7456860307725 35.928834434079 35.115289174886 34.2835527870686 33.6599659261143 33.0768651107032 32.7589959697823 32.4243841737175 31.8039120414859 31.3011573558251 30.860022024604 30.4301672424348 30.0559658637636 29.7549173270111 29.8676376017789 29.9587248611001 30.1657427330912 30.4176409189964 30.5466803243547 30.8920902874097 31.0744385000805 31.004327089411 31.5156012926042 31.4791138372084 31.7352047067803 31.9139615277457 31.798462982639 32.251263563444 32.7828090276105 32.7980236185538 32.0101083325544 31.213592849776 30.0758416775025 30.2526368774496 30.0908542657016 29.3992175807091 28.8280754973387 28.9769341877943 28.6338380342195 28.5074409846535 28.1502204281548 28.3199170864543 28.2414455772326 28.0945727447425 27.7871591977385 27.8054593202324 27.9920042384605 28.1196479386764 28.0706123527547 28.3072847324854 28.4637446956288 28.5844664921497 28.65533893835 28.7513902276552 28.8596515166387 28.96659125059 29.100108151941 29.2615610995883 29.3940901934206 29.5105370014481 29.5873976470949 29.5969131777732 29.5342225828507 29.6253918725938 29.6531409319024 29.6608826103916 29.694875522035 29.68875837486 29.6703663162775 29.6436120151561 29.4720063483789 29.5534931258211 29.4767954697195 29.4346457261698 29.4117549475864 29.4179456457365 29.3519560480225 29.2324168492709 29.1185249272298 29.0717963310097 28.9968063706085 28.9056836252818 28.8388073631917 28.7513850007557 28.620639099962 28.5276419188185 28.4471126919958 28.3135150685997
43.2460012357887 43.2514439548979 43.2597781188976 43.2726890332774 43.288556390114 43.3016702057286 43.3182484387726 43.3376237608421 43.3564081460375 43.3933524308669 43.4354541089165 43.4003375943658 43.3721564797742 43.3791682772891 43.3772856552954 43.358987950793 43.3556499554634 43.313163016969 43.3194164594576 43.3573923647097 43.4147310031938 43.4659706589279 43.4879285529681 43.5556218544433 43.6326803019745 43.6923398291374 43.87662869555 43.9297727439581 44.0222701293502 44.1056788564084 44.1910015778632 44.2403741103293 44.3013368746074 44.3599535764388 44.3975052831909 44.4261444681981 44.4713039820177 44.4915490370587 44.5103503676243 44.5112857874045 44.4961243115313 44.4857138713714 44.472710616333 44.4219768717932 44.371581189098 44.3245937826531 44.2305784921721 44.2058054984872 44.1935728385984 44.1427796189806 44.258033902088 44.3241904064237 44.3938246161524 44.4144256089212 44.4340380891686 44.4565660355173 44.3355495734515 44.3137147486212 44.1033399278874 43.6884867026234 43.4775058817272 43.0839367644953 42.8889514602639 43.1446481488159 42.6729440289868 42.4173990442356 41.7492528188348 40.3532070408834 40.5699097794733 39.8658190521762 39.0723002026891 37.5829358844996 36.5848093432236 35.3888591704822 34.5684398072183 34.0731882170362 34.3940232914438 34.7218589582178 34.8789172393755 34.6947304208599 34.5443477002348 34.3090617913889 34.6392464235019 34.801293568338 35.1657570530179 35.6359365793097 36.0541195239574 36.2146716404567 36.3875278446979 36.5807057812891 36.7243099471278 36.2541216352983 35.849310882249 35.3682543001906 35.1204448095159 34.3741939982547 33.8776382667622 33.3193101720343 32.8980295612442 33.0380272293429 32.0016779745006 31.2733760325574 30.7477551178126 30.2568835511191 29.9775244153356 29.6915529365726 29.6521276749007 29.7687288709295 30.1495178469131 30.4157237528586 30.5281435796209 30.7552409134528 30.9137573305957 30.9702079938464 31.3180357651013 31.6634925427643 31.5920362700445 31.9049819350516 31.714923373229 32.4812263124766 32.3594627625287 32.8385404789666 32.3113508288776 31.6887312900616 30.307273223249 30.2901533982391 30.2552547670112 29.8982217333735 29.0701711012534 28.7488656031894 28.2960249010167 28.4564527282634 27.9285875860769 28.0004921077912 27.990260469675 27.9456359029509 27.5780438065762 26.8000310458486 27.6230367126897 27.6979821092407 27.7063271591886 27.8637541078963 28.0622763659543 28.187995344444 28.2392745997102 28.3137074355606 28.4323372408119 28.5531188928882 28.7124040314304 28.8383000348442 29.0248032777522 29.1669669525699 29.2768281336032 29.2756435447294 29.2822535799338 29.30559884715 29.2571073509307 29.308048714571 29.3349585092796 29.3460380702369 29.3172675421358 29.279988767316 29.2277722588692 29.2597540285901 29.1984429289501 29.1204547722671 29.0712701944689 29.0835106648901 29.0200022801513 28.9040745108579 28.7350998506128 28.7522121987012 28.6997387777424 28.651482998506 28.5426070699155 28.4936278727327 28.3749911619986 28.3050500153967 28.2017793448439 28.1407878429984
43.1680365530854 43.1668363120045 43.1553799061108 43.1438927001472 43.15349144492 43.2124335771291 43.2386329395053 43.2939299128213 43.2658154621797 43.2964366160248 43.3580045866367 43.334794560857 43.3263179281807 43.330473847729 43.3210405762201 43.3038923525892 43.3025390118669 43.2857256611131 43.2524753592568 43.2633131568706 43.3263068529337 43.3666248830874 43.4106962858194 43.4747479350022 43.5374325391489 43.6213465534819 43.7449042138741 43.8893123492002 44.0035898898669 44.0190714056895 44.09790488265 44.1669791803816 44.2203983794204 44.2707387324771 44.310397988384 44.3478318231093 44.3616430144948 44.397524175551 44.4248166362295 44.434107731967 44.4627654986871 44.4324554180807 44.3985783277064 44.3416336710183 44.2838991042397 44.2403210434241 44.1661958665727 44.150155797575 44.1369430359415 44.1733955433321 44.2417001306313 44.3619222959367 44.3936193508092 44.4366363618276 44.4828006469503 44.5291894046728 44.4363637853914 44.2987612618635 44.0661814016291 43.3945371726734 43.3771872089929 43.5547561912453 43.4053046034129 43.729678034269 43.6178754511684 42.6812607295777 42.0800806002816 41.1602131963323 41.1412708390443 40.1697901105105 39.135121154516 37.9150044420893 36.8449892280267 35.3221661341854 35.1228894766035 34.6513474510662 34.4550467107701 34.7110575441778 34.7810598712528 34.5580115958497 34.2851286746879 34.3917595339668 34.4895138654239 34.5260375924359 34.8691756903891 35.350991164093 35.796945057057 36.1239475873775 36.2480743196699 36.4806838992883 36.5173462827243 36.368919188695 35.9697830314562 35.3142979022167 34.7593479906303 34.3160395191231 34.0361144621509 33.5133466933019 33.030202675776 32.7252657621296 32.3109012158865 31.3672746931435 30.6750888858223 30.0788588694017 29.2653632309987 29.5838006730716 29.7443630386905 29.9084665453959 30.1593854392683 30.3801428145686 30.6038506785387 31.1226733394881 30.9430189277135 30.9484971985188 31.0792678665623 31.5499012205628 31.624800563003 31.7674057472116 31.8615231811504 32.5302944624644 32.4539375860957 32.3904848771685 32.346370840842 31.9608461761374 31.2556142073427 30.8320710903232 30.5362576216941 30.2472842133551 29.7566252278679 29.3273951735161 28.5010296676136 28.3502916381197 28.398538909439 28.0541267034142 27.1662723887131 27.8567237604324 27.7389612090923 27.3829875854433 26.993463858122 27.3909710475048 27.4105370666624 27.3690371330647 27.6417450126181 27.7858168965358 27.9035359788664 27.9387388938448 27.9707551810769 28.2148107610624 28.4136210410012 28.4659105096604 28.6400606803732 28.7756679690792 28.9522844126079 28.9464000088853 28.939944227532 28.967320077534 28.9603478298599 28.9220649621846 28.972200280041 28.9946373339615 28.9677628061482 28.902499695806 28.9381785966102 28.9562493285607 28.8742867684227 28.7760052140143 28.7898914701732 28.7561505219447 28.7274615464244 28.6517470881855 28.4317802914675 28.4323590939488 28.414464251245 28.4466002839445 28.3169310829521 28.2255135132118 28.1529178035602 28.0691620886089 27.9548885120351 27.8635688843053
43.1048922687226 43.0821028637853 43.0677744134348 43.0581366606087 43.0771591444196 43.1365611789362 43.1486608384878 43.1979005398004 43.1851621471823 43.2284210851145 43.2405336994149 43.2494886351945 43.2656867418615 43.2800483403525 43.2695868475292 43.2634074053071 43.2546250710553 43.2320726735604 43.221660187627 43.2394391051295 43.2504877666639 43.2825322752087 43.3218828480573 43.3875964238202 43.4414949774893 43.4884142739783 43.628669568223 43.7565022943086 43.8706303297669 43.9895545754007 43.9981852338527 44.0697367805463 44.1329388945811 44.2187781233833 44.2299681688865 44.2577527289231 44.2797773449612 44.3206107384993 44.3431347406899 44.3511928699078 44.3835834264167 44.3409287903288 44.3056250572397 44.2643686956521 44.2132087076094 44.1902076754149 44.1241218145013 44.1011424082635 44.0863861150861 44.1847504164971 44.2095218616983 44.3075981818949 44.3717931389707 44.4293673335394 44.4919312259835 44.5087279606029 44.618651732583 44.3844544776788 44.1875487124819 43.865340219744 43.719946150444 43.848527690485 43.7561799049849 43.7505819261174 43.5363342829993 42.9544401051949 42.396873300122 41.7070728125246 41.2575322565675 40.4551350944363 39.6003640161259 38.3199698213621 37.1990043062981 35.8130544569368 35.3266646540713 35.1218750927683 34.7081827596616 34.7888474642753 34.7999911460863 34.5741618528683 34.2285582288536 34.194663975844 33.994492331516 34.3963914421948 34.7270505396711 35.1363024463568 35.5725326759021 36.0725076670913 36.2056600589992 36.4982341301062 36.5763839326791 36.3031229606841 35.7891951225182 35.05242448426 34.2204866964808 34.2293391356916 33.711933146012 34.3124484362782 33.1441991170172 32.5858006097647 32.0373340209707 31.177067522728 30.5581016687387 30.1437280434132 29.5936990703998 29.4617914222534 29.83983801053 30.0583900413355 30.2403690505089 30.5091662592594 30.4680754204763 30.8695392202921 30.7368134863815 30.6021841023296 30.8158828394771 31.2173910176334 31.6785697323818 31.689182572605 32.0001507207841 32.2422151973682 32.4594232803016 32.3712777598357 32.2317219126738 32.0027897311979 31.6792734500005 31.4155676884433 31.1346823815506 30.5934128984899 30.1502430217442 29.7624600979988 29.1750247362883 28.4476232527158 28.803532945583 28.6016471652773 28.1483957559419 28.1595854034329 27.9842253000316 27.5876273759889 26.5546132989557 27.1924935202014 26.9412615981569 27.2136830476359 27.1959011117905 27.0630960961919 27.5844555320434 27.6899076297698 27.5022248707344 27.8261086252417 28.0835300899655 28.179213381857 28.2854682369818 28.3963763599135 28.5412186744673 28.5928438005265 28.629847183618 28.6269219172199 28.6720091547469 28.6140465510767 28.6590599317973 28.6739257196536 28.6561008549359 28.5953263674869 28.6544087439708 28.6501103631779 28.5965506253359 28.4822673856953 28.4976284317155 28.4673430789004 28.4599077992137 28.4013187766314 28.2878949960319 28.2119078720365 28.1248368885667 28.1506243556013 28.1180060285288 28.009913518707 27.8959799155405 27.8136323795502 27.6833338542456 27.6453723279232
